%YAML:1.0
imagedepth: !!opencv-matrix
   rows: 22
   cols: 277
   dt: f
   data: [ 4.08900023e+00, 4.08900023e+00, 4.08900023e+00, 4.08900023e+00, 4.08900023e+00, 4.08900023e+00, 4.08900023e+00, 4.08900023e+00, 4.08900023e+00, 4.08900023e+00, 4.08900023e+00, 4.08900023e+00, 4.08900023e+00, 4.08900023e+00, 4.08900023e+00, 4.08900023e+00, 4.08900023e+00, 4.08900023e+00, 4.08900023e+00, 4.08900023e+00, 4.08900023e+00, 4.04099989e+00, 4.04099989e+00, 4.04099989e+00, 4.04099989e+00, 4.08900023e+00, 4.08900023e+00, 4.04099989e+00, 4.04099989e+00, 4.08900023e+00, 4.08900023e+00, 4.04099989e+00, 4.04099989e+00, 4.04099989e+00, 4.04099989e+00, 4.08900023e+00, 4.08900023e+00, 4.08900023e+00, 4.08900023e+00, 4.08900023e+00, 4.08900023e+00, 4.08900023e+00, 4.08900023e+00, 4.08900023e+00, 4.08900023e+00, 4.08900023e+00, 4.04099989e+00, 4.04099989e+00, 4.04099989e+00, 4.04099989e+00, 4.04099989e+00, 4.04099989e+00, 4.04099989e+00, 3.99399996e+00, 3.99399996e+00, 3.99399996e+00, 3.99399996e+00, 4.04099989e+00, 4.04099989e+00, 3.99399996e+00, 3.99399996e+00, 3.99399996e+00, 3.99399996e+00, 3.99399996e+00, 3.99399996e+00, 3.99399996e+00, 3.99399996e+00, 3.99399996e+00, 3.99399996e+00, 3.99399996e+00, 3.99399996e+00, 3.99399996e+00, 3.99399996e+00, 3.99399996e+00, 3.99399996e+00, 3.99399996e+00, 3.99399996e+00, 3.99399996e+00, 3.99399996e+00, 3.99399996e+00, 3.99399996e+00, 3.94799995e+00, 3.94799995e+00, 3.94799995e+00, 3.94799995e+00, 3.94799995e+00, 3.94799995e+00, 3.94799995e+00, 3.90300012e+00, 3.94799995e+00, 3.90300012e+00, 3.94799995e+00, 3.90300012e+00, 3.90300012e+00, 3.90300012e+00, 3.90300012e+00, 3.90300012e+00, 3.90300012e+00, 3.90300012e+00, 3.90300012e+00, 3.90300012e+00, 3.90300012e+00, 3.90300012e+00, 3.90300012e+00, 3.90300012e+00, 3.90300012e+00, 3.90300012e+00, 3.90300012e+00, 3.90300012e+00, 3.85899997e+00, 3.85899997e+00, 3.85899997e+00, 3.90300012e+00, 3.90300012e+00, 3.90300012e+00, 3.90300012e+00, 3.90300012e+00, 3.81599998e+00, 3.81599998e+00, 3.81599998e+00, 3.81599998e+00, 3.81599998e+00, 3.81599998e+00, 3.81599998e+00, 3.81599998e+00, 3.81599998e+00, 3.81599998e+00, 3.81599998e+00, 3.77399993e+00, 3.81599998e+00, 3.81599998e+00, 3.81599998e+00, 3.81599998e+00, 3.81599998e+00, 3.81599998e+00, 3.81599998e+00, 3.81599998e+00, 3.81599998e+00, 3.81599998e+00, 3.77399993e+00, 3.77399993e+00, 3.77399993e+00, 3.77399993e+00, 3.77399993e+00, 3.77399993e+00, 3.77399993e+00, 3.77399993e+00, 3.77399993e+00, 3.77399993e+00, 3.77399993e+00, 3.77399993e+00, 3.77399993e+00, 3.77399993e+00, 3.77399993e+00, 3.77399993e+00, 3.77399993e+00, 3.77399993e+00, 3.77399993e+00, 3.77399993e+00, 3.77399993e+00, 3.77399993e+00, 3.77399993e+00, 3.81599998e+00, 3.81599998e+00, 3.81599998e+00, 3.81599998e+00, 3.81599998e+00, 3.81599998e+00, 3.81599998e+00, 3.77399993e+00, 3.77399993e+00, 3.81599998e+00, 3.81599998e+00, 3.81599998e+00, 3.81599998e+00, 3.81599998e+00, 3.81599998e+00, 3.81599998e+00, 3.77399993e+00, 3.77399993e+00, 3.77399993e+00, 3.77399993e+00, 3.73200011e+00, 3.73200011e+00, 3.77399993e+00, 3.77399993e+00, 3.77399993e+00, 3.77399993e+00, 3.77399993e+00, 3.77399993e+00, 3.77399993e+00, 3.77399993e+00, 3.73200011e+00, 3.73200011e+00, 3.77399993e+00, 3.73200011e+00, 3.73200011e+00, 3.77399993e+00, 3.77399993e+00, 3.77399993e+00, 3.73200011e+00, 3.73200011e+00, 3.73200011e+00, 3.73200011e+00, 3.73200011e+00, 3.73200011e+00, 3.73200011e+00, 3.73200011e+00, 3.77399993e+00, 3.73200011e+00, 3.73200011e+00, 3.73200011e+00, 3.73200011e+00, 3.73200011e+00, 3.73200011e+00, 3.73200011e+00, 3.73200011e+00, 3.69199991e+00, 3.73200011e+00, 3.73200011e+00, 3.73200011e+00, 3.73200011e+00, 3.73200011e+00, 3.73200011e+00, 3.77399993e+00, .Nan, .Nan, .Nan, .Nan, .Nan, .Nan, .Nan, .Nan, .Nan, 3.73200011e+00, 3.73200011e+00, 3.73200011e+00, .Nan, .Nan, .Nan, .Nan, .Nan, .Nan, .Nan, .Nan, .Nan, 3.69199991e+00, 3.65300012e+00, 3.65300012e+00, 3.61400008e+00, 3.65300012e+00, 3.61400008e+00, 3.65300012e+00, 3.69199991e+00, 3.69199991e+00, 3.73200011e+00, .Nan, .Nan, .Nan, .Nan, .Nan, 3.69199991e+00, 3.73200011e+00, 3.73200011e+00, 3.73200011e+00, 3.73200011e+00, 3.73200011e+00, 3.73200011e+00, 3.69199991e+00, 3.69199991e+00, 3.69199991e+00, 3.69199991e+00, 3.69199991e+00, 3.69199991e+00, 3.69199991e+00, 3.69199991e+00, 3.69199991e+00,
       4.08900023e+00, 4.08900023e+00, 4.08900023e+00, 4.08900023e+00, 4.08900023e+00, 4.08900023e+00, 4.08900023e+00, 4.08900023e+00, 4.08900023e+00, 4.08900023e+00, 4.08900023e+00, 4.08900023e+00, 4.08900023e+00, 4.08900023e+00, 4.08900023e+00, 4.08900023e+00, 4.08900023e+00, 4.08900023e+00, 4.08900023e+00, 4.08900023e+00, 4.08900023e+00, 4.08900023e+00, 4.04099989e+00, 4.08900023e+00, 4.04099989e+00, 4.04099989e+00, 4.04099989e+00, 4.04099989e+00, 4.04099989e+00, 4.04099989e+00, 4.04099989e+00, 4.04099989e+00, 4.04099989e+00, 4.04099989e+00, 4.04099989e+00, 4.08900023e+00, 4.08900023e+00, 4.08900023e+00, 4.08900023e+00, 4.08900023e+00, 4.08900023e+00, 4.08900023e+00, 4.08900023e+00, 4.08900023e+00, 4.08900023e+00, 4.08900023e+00, 4.04099989e+00, 4.04099989e+00, 4.04099989e+00, 4.04099989e+00, 4.04099989e+00, 4.04099989e+00, 4.04099989e+00, 3.99399996e+00, 3.99399996e+00, 3.99399996e+00, 3.99399996e+00, 3.99399996e+00, 3.99399996e+00, 3.99399996e+00, 3.99399996e+00, 3.99399996e+00, 3.99399996e+00, 3.99399996e+00, 3.94799995e+00, 3.99399996e+00, 3.99399996e+00, 3.99399996e+00, 3.99399996e+00, 3.99399996e+00, 3.99399996e+00, 3.99399996e+00, 3.99399996e+00, 3.99399996e+00, 3.99399996e+00, 3.99399996e+00, 3.99399996e+00, 3.99399996e+00, 3.99399996e+00, 3.99399996e+00, 3.99399996e+00, 3.94799995e+00, 3.94799995e+00, 3.94799995e+00, 3.94799995e+00, 3.94799995e+00, 3.94799995e+00, 3.94799995e+00, 3.90300012e+00, 3.90300012e+00, 3.90300012e+00, 3.90300012e+00, 3.90300012e+00, 3.90300012e+00, 3.90300012e+00, 3.90300012e+00, 3.90300012e+00, 3.90300012e+00, 3.90300012e+00, 3.90300012e+00, 3.90300012e+00, 3.90300012e+00, 3.90300012e+00, 3.90300012e+00, 3.90300012e+00, 3.90300012e+00, 3.90300012e+00, 3.90300012e+00, 3.90300012e+00, 3.85899997e+00, 3.85899997e+00, 3.85899997e+00, 3.85899997e+00, 3.90300012e+00, 3.90300012e+00, 3.90300012e+00, 3.85899997e+00, 3.81599998e+00, 3.81599998e+00, 3.81599998e+00, 3.81599998e+00, 3.81599998e+00, 3.81599998e+00, 3.81599998e+00, 3.81599998e+00, 3.81599998e+00, 3.81599998e+00, 3.81599998e+00, 3.77399993e+00, 3.81599998e+00, 3.81599998e+00, 3.81599998e+00, 3.81599998e+00, 3.81599998e+00, 3.81599998e+00, 3.81599998e+00, 3.81599998e+00, 3.81599998e+00, 3.81599998e+00, 3.77399993e+00, 3.77399993e+00, 3.77399993e+00, 3.77399993e+00, 3.77399993e+00, 3.77399993e+00, 3.77399993e+00, 3.77399993e+00, 3.77399993e+00, 3.77399993e+00, 3.77399993e+00, 3.77399993e+00, 3.77399993e+00, 3.77399993e+00, 3.77399993e+00, 3.77399993e+00, 3.77399993e+00, 3.77399993e+00, 3.77399993e+00, 3.77399993e+00, 3.77399993e+00, 3.77399993e+00, 3.77399993e+00, 3.77399993e+00, 3.77399993e+00, 3.77399993e+00, 3.81599998e+00, 3.81599998e+00, 3.81599998e+00, 3.81599998e+00, 3.77399993e+00, 3.81599998e+00, 3.81599998e+00, 3.81599998e+00, 3.81599998e+00, 3.81599998e+00, 3.81599998e+00, 3.81599998e+00, 3.81599998e+00, 3.77399993e+00, 3.77399993e+00, 3.77399993e+00, 3.73200011e+00, 3.73200011e+00, 3.73200011e+00, 3.73200011e+00, 3.73200011e+00, 3.73200011e+00, 3.77399993e+00, 3.77399993e+00, 3.77399993e+00, 3.77399993e+00, 3.77399993e+00, 3.73200011e+00, 3.77399993e+00, 3.77399993e+00, 3.77399993e+00, 3.73200011e+00, 3.77399993e+00, 3.77399993e+00, 3.77399993e+00, 3.77399993e+00, 3.77399993e+00, 3.73200011e+00, 3.73200011e+00, 3.73200011e+00, 3.73200011e+00, 3.73200011e+00, 3.73200011e+00, 3.77399993e+00, 3.77399993e+00, 3.77399993e+00, 3.73200011e+00, 3.73200011e+00, 3.73200011e+00, 3.73200011e+00, 3.73200011e+00, 3.73200011e+00, 3.73200011e+00, 3.73200011e+00, 3.73200011e+00, 3.73200011e+00, 3.77399993e+00, 3.73200011e+00, 3.73200011e+00, 3.77399993e+00, 3.73200011e+00, .Nan, .Nan, .Nan, .Nan, .Nan, .Nan, .Nan, .Nan, .Nan, .Nan, .Nan, .Nan, .Nan, .Nan, .Nan, .Nan, .Nan, .Nan, .Nan, .Nan, 3.69199991e+00, 3.65300012e+00, 3.65300012e+00, 3.65300012e+00, 3.61400008e+00, 3.61400008e+00, 3.65300012e+00, 3.69199991e+00, 3.73200011e+00, 3.73200011e+00, .Nan, .Nan, .Nan, .Nan, .Nan, 3.73200011e+00, 3.73200011e+00, 3.73200011e+00, 3.73200011e+00, 3.73200011e+00, 3.73200011e+00, 3.73200011e+00, 3.69199991e+00, 3.69199991e+00, 3.69199991e+00, 3.69199991e+00, 3.65300012e+00, 3.65300012e+00, 3.65300012e+00, 3.69199991e+00, 3.69199991e+00,
       4.08900023e+00, 4.08900023e+00, 4.08900023e+00, 4.08900023e+00, 4.08900023e+00, 4.08900023e+00, 4.08900023e+00, 4.08900023e+00, 4.08900023e+00, 4.08900023e+00, 4.08900023e+00, 4.08900023e+00, 4.08900023e+00, 4.08900023e+00, 4.08900023e+00, 4.08900023e+00, 4.08900023e+00, 4.08900023e+00, 4.08900023e+00, 4.08900023e+00, 4.08900023e+00, 4.08900023e+00, 4.08900023e+00, 4.08900023e+00, 4.08900023e+00, 4.08900023e+00, 4.04099989e+00, 4.04099989e+00, 4.04099989e+00, 4.04099989e+00, 4.04099989e+00, 4.04099989e+00, 4.04099989e+00, 4.04099989e+00, 4.04099989e+00, 4.04099989e+00, 4.04099989e+00, 4.08900023e+00, 4.08900023e+00, 4.08900023e+00, 4.08900023e+00, 4.08900023e+00, 4.08900023e+00, 4.08900023e+00, 4.08900023e+00, 4.08900023e+00, 4.04099989e+00, 4.04099989e+00, 4.04099989e+00, 4.04099989e+00, 4.04099989e+00, 4.04099989e+00, 4.04099989e+00, 3.99399996e+00, 3.99399996e+00, 3.99399996e+00, 3.99399996e+00, 3.99399996e+00, 3.99399996e+00, 3.99399996e+00, 3.99399996e+00, 3.99399996e+00, 3.99399996e+00, 3.99399996e+00, 3.94799995e+00, 3.99399996e+00, 3.99399996e+00, 3.99399996e+00, 3.99399996e+00, 3.99399996e+00, 3.99399996e+00, 3.99399996e+00, 3.99399996e+00, 3.99399996e+00, 3.99399996e+00, 3.99399996e+00, 3.99399996e+00, 3.99399996e+00, 3.99399996e+00, 3.99399996e+00, 3.99399996e+00, 3.94799995e+00, 3.94799995e+00, 3.94799995e+00, 3.94799995e+00, 3.94799995e+00, 3.94799995e+00, 3.94799995e+00, 3.90300012e+00, 3.94799995e+00, 3.94799995e+00, 3.94799995e+00, 3.94799995e+00, 3.90300012e+00, 3.94799995e+00, 3.90300012e+00, 3.90300012e+00, 3.90300012e+00, 3.90300012e+00, 3.90300012e+00, 3.90300012e+00, 3.90300012e+00, 3.90300012e+00, 3.90300012e+00, 3.90300012e+00, 3.90300012e+00, 3.90300012e+00, 3.90300012e+00, 3.90300012e+00, 3.85899997e+00, 3.85899997e+00, 3.85899997e+00, 3.85899997e+00, 3.85899997e+00, 3.90300012e+00, 3.90300012e+00, 3.85899997e+00, 3.81599998e+00, 3.81599998e+00, 3.81599998e+00, 3.81599998e+00, 3.81599998e+00, 3.81599998e+00, 3.81599998e+00, 3.81599998e+00, 3.81599998e+00, 3.81599998e+00, 3.81599998e+00, 3.81599998e+00, 3.81599998e+00, 3.81599998e+00, 3.81599998e+00, 3.81599998e+00, 3.81599998e+00, 3.81599998e+00, 3.81599998e+00, 3.81599998e+00, 3.81599998e+00, 3.81599998e+00, 3.81599998e+00, 3.77399993e+00, 3.77399993e+00, 3.77399993e+00, 3.77399993e+00, 3.77399993e+00, 3.77399993e+00, 3.77399993e+00, 3.77399993e+00, 3.77399993e+00, 3.77399993e+00, 3.77399993e+00, 3.77399993e+00, 3.77399993e+00, 3.77399993e+00, 3.77399993e+00, 3.77399993e+00, 3.77399993e+00, 3.77399993e+00, 3.77399993e+00, 3.77399993e+00, 3.77399993e+00, 3.77399993e+00, 3.77399993e+00, 3.81599998e+00, 3.81599998e+00, 3.81599998e+00, 3.81599998e+00, 3.81599998e+00, 3.81599998e+00, 3.77399993e+00, 3.77399993e+00, 3.81599998e+00, 3.77399993e+00, 3.77399993e+00, 3.81599998e+00, 3.81599998e+00, 3.81599998e+00, 3.81599998e+00, 3.77399993e+00, 3.77399993e+00, 3.73200011e+00, 3.73200011e+00, 3.73200011e+00, 3.73200011e+00, 3.73200011e+00, 3.73200011e+00, 3.73200011e+00, 3.73200011e+00, 3.73200011e+00, 3.73200011e+00, 3.73200011e+00, 3.73200011e+00, 3.73200011e+00, 3.73200011e+00, 3.73200011e+00, 3.77399993e+00, 3.77399993e+00, 3.77399993e+00, 3.77399993e+00, 3.77399993e+00, 3.77399993e+00, 3.77399993e+00, 3.77399993e+00, 3.77399993e+00, 3.77399993e+00, 3.73200011e+00, 3.73200011e+00, 3.73200011e+00, 3.77399993e+00, 3.77399993e+00, 3.77399993e+00, 3.77399993e+00, 3.77399993e+00, 3.73200011e+00, 3.77399993e+00, 3.73200011e+00, 3.73200011e+00, 3.73200011e+00, 3.73200011e+00, 3.73200011e+00, 3.73200011e+00, 3.77399993e+00, 3.73200011e+00, 3.73200011e+00, 3.73200011e+00, 3.73200011e+00, .Nan, .Nan, .Nan, .Nan, .Nan, .Nan, .Nan, 3.73200011e+00, .Nan, .Nan, .Nan, .Nan, .Nan, .Nan, .Nan, .Nan, .Nan, .Nan, .Nan, .Nan, 3.69199991e+00, 3.69199991e+00, 3.65300012e+00, 3.65300012e+00, 3.65300012e+00, 3.65300012e+00, 3.65300012e+00, 3.69199991e+00, 3.73200011e+00, 3.73200011e+00, 3.73200011e+00, .Nan, .Nan, .Nan, .Nan, 3.69199991e+00, 3.69199991e+00, 3.69199991e+00, 3.73200011e+00, 3.73200011e+00, 3.73200011e+00, 3.69199991e+00, 3.69199991e+00, 3.69199991e+00, 3.69199991e+00, 3.69199991e+00, 3.65300012e+00, 3.65300012e+00, 3.65300012e+00, 3.69199991e+00, 3.69199991e+00,
       4.08900023e+00, 4.08900023e+00, 4.08900023e+00, 4.08900023e+00, 4.08900023e+00, 4.08900023e+00, 4.08900023e+00, 4.08900023e+00, 4.08900023e+00, 4.08900023e+00, 4.08900023e+00, 4.08900023e+00, 4.08900023e+00, 4.08900023e+00, 4.08900023e+00, 4.08900023e+00, 4.08900023e+00, 4.08900023e+00, 4.08900023e+00, 4.08900023e+00, 4.08900023e+00, 4.08900023e+00, 4.08900023e+00, 4.08900023e+00, 4.08900023e+00, 4.08900023e+00, 4.08900023e+00, 4.04099989e+00, 4.04099989e+00, 4.04099989e+00, 4.04099989e+00, 4.04099989e+00, 4.04099989e+00, 4.04099989e+00, 4.04099989e+00, 4.04099989e+00, 4.04099989e+00, 4.08900023e+00, 4.08900023e+00, 4.08900023e+00, 4.08900023e+00, 4.08900023e+00, 4.08900023e+00, 4.08900023e+00, 4.08900023e+00, 4.04099989e+00, 4.04099989e+00, 4.04099989e+00, 4.04099989e+00, 4.04099989e+00, 4.04099989e+00, 4.04099989e+00, 4.04099989e+00, 3.99399996e+00, 3.99399996e+00, 3.99399996e+00, 3.99399996e+00, 3.99399996e+00, 3.99399996e+00, 3.99399996e+00, 3.99399996e+00, 3.99399996e+00, 3.99399996e+00, 3.99399996e+00, 3.99399996e+00, 3.99399996e+00, 3.99399996e+00, 3.99399996e+00, 3.99399996e+00, 3.99399996e+00, 3.99399996e+00, 3.99399996e+00, 3.99399996e+00, 3.99399996e+00, 3.99399996e+00, 3.99399996e+00, 3.99399996e+00, 3.99399996e+00, 3.99399996e+00, 3.99399996e+00, 3.99399996e+00, 3.94799995e+00, 3.94799995e+00, 3.94799995e+00, 3.94799995e+00, 3.94799995e+00, 3.94799995e+00, 3.94799995e+00, 3.90300012e+00, 3.90300012e+00, 3.90300012e+00, 3.90300012e+00, 3.90300012e+00, 3.90300012e+00, 3.90300012e+00, 3.90300012e+00, 3.90300012e+00, 3.90300012e+00, 3.90300012e+00, 3.90300012e+00, 3.90300012e+00, 3.90300012e+00, 3.90300012e+00, 3.90300012e+00, 3.90300012e+00, 3.90300012e+00, 3.90300012e+00, 3.90300012e+00, 3.90300012e+00, 3.90300012e+00, 3.90300012e+00, 3.85899997e+00, 3.85899997e+00, 3.85899997e+00, 3.85899997e+00, 3.90300012e+00, 3.85899997e+00, 3.81599998e+00, 3.81599998e+00, 3.81599998e+00, 3.81599998e+00, 3.81599998e+00, 3.81599998e+00, 3.81599998e+00, 3.81599998e+00, 3.81599998e+00, 3.81599998e+00, 3.81599998e+00, 3.81599998e+00, 3.81599998e+00, 3.81599998e+00, 3.81599998e+00, 3.81599998e+00, 3.81599998e+00, 3.81599998e+00, 3.81599998e+00, 3.81599998e+00, 3.81599998e+00, 3.81599998e+00, 3.81599998e+00, 3.81599998e+00, 3.77399993e+00, 3.77399993e+00, 3.77399993e+00, 3.77399993e+00, 3.77399993e+00, 3.77399993e+00, 3.77399993e+00, 3.77399993e+00, 3.77399993e+00, 3.77399993e+00, 3.77399993e+00, 3.77399993e+00, 3.77399993e+00, 3.77399993e+00, 3.77399993e+00, 3.77399993e+00, 3.77399993e+00, 3.77399993e+00, 3.77399993e+00, 3.77399993e+00, 3.77399993e+00, 3.77399993e+00, 3.81599998e+00, 3.81599998e+00, 3.81599998e+00, 3.81599998e+00, 3.81599998e+00, 3.81599998e+00, 3.77399993e+00, 3.81599998e+00, 3.81599998e+00, 3.77399993e+00, 3.77399993e+00, 3.81599998e+00, 3.81599998e+00, 3.81599998e+00, 3.77399993e+00, 3.77399993e+00, 3.77399993e+00, 3.73200011e+00, 3.73200011e+00, 3.73200011e+00, 3.73200011e+00, 3.73200011e+00, 3.73200011e+00, 3.73200011e+00, 3.73200011e+00, 3.73200011e+00, 3.73200011e+00, 3.73200011e+00, 3.73200011e+00, 3.73200011e+00, 3.73200011e+00, 3.73200011e+00, 3.73200011e+00, 3.73200011e+00, 3.73200011e+00, 3.77399993e+00, 3.77399993e+00, 3.77399993e+00, 3.77399993e+00, 3.77399993e+00, 3.77399993e+00, 3.77399993e+00, 3.77399993e+00, 3.77399993e+00, 3.77399993e+00, 3.77399993e+00, 3.73200011e+00, 3.77399993e+00, 3.77399993e+00, 3.77399993e+00, 3.73200011e+00, 3.73200011e+00, 3.73200011e+00, 3.73200011e+00, 3.73200011e+00, 3.69199991e+00, 3.69199991e+00, 3.69199991e+00, 3.73200011e+00, 3.73200011e+00, 3.73200011e+00, 3.73200011e+00, 3.73200011e+00, .Nan, .Nan, .Nan, .Nan, .Nan, .Nan, .Nan, 3.73200011e+00, 3.69199991e+00, 3.69199991e+00, 3.73200011e+00, .Nan, .Nan, .Nan, .Nan, .Nan, .Nan, .Nan, .Nan, .Nan, 3.69199991e+00, 3.69199991e+00, 3.65300012e+00, 3.65300012e+00, 3.61400008e+00, 3.65300012e+00, 3.65300012e+00, 3.69199991e+00, 3.73200011e+00, 3.73200011e+00, .Nan, .Nan, .Nan, .Nan, .Nan, .Nan, 3.69199991e+00, 3.73200011e+00, 3.73200011e+00, 3.73200011e+00, 3.73200011e+00, 3.69199991e+00, 3.69199991e+00, 3.69199991e+00, 3.69199991e+00, 3.69199991e+00, 3.69199991e+00, 3.69199991e+00, 3.69199991e+00, 3.69199991e+00, 3.69199991e+00,
       4.08900023e+00, 4.08900023e+00, 4.08900023e+00, 4.08900023e+00, 4.08900023e+00, 4.08900023e+00, 4.08900023e+00, 4.08900023e+00, 4.08900023e+00, 4.08900023e+00, 4.08900023e+00, 4.08900023e+00, 4.08900023e+00, 4.08900023e+00, 4.08900023e+00, 4.08900023e+00, 4.08900023e+00, 4.08900023e+00, 4.08900023e+00, 4.08900023e+00, 4.08900023e+00, 4.08900023e+00, 4.08900023e+00, 4.08900023e+00, 4.08900023e+00, 4.08900023e+00, 4.08900023e+00, 4.08900023e+00, 4.08900023e+00, 4.04099989e+00, 4.04099989e+00, 4.04099989e+00, 4.04099989e+00, 4.04099989e+00, 4.04099989e+00, 4.04099989e+00, 4.04099989e+00, 4.04099989e+00, 4.04099989e+00, 4.04099989e+00, 4.08900023e+00, 4.08900023e+00, 4.08900023e+00, 4.08900023e+00, 4.08900023e+00, 4.04099989e+00, 4.08900023e+00, 4.04099989e+00, 4.04099989e+00, 4.08900023e+00, 4.08900023e+00, 4.08900023e+00, 4.04099989e+00, 3.99399996e+00, 3.99399996e+00, 3.99399996e+00, 3.99399996e+00, 3.99399996e+00, 3.99399996e+00, 3.99399996e+00, 3.99399996e+00, 3.99399996e+00, 3.99399996e+00, 3.99399996e+00, 3.99399996e+00, 3.99399996e+00, 3.99399996e+00, 3.99399996e+00, 3.99399996e+00, 3.99399996e+00, 3.99399996e+00, 3.99399996e+00, 3.99399996e+00, 3.99399996e+00, 3.99399996e+00, 3.99399996e+00, 3.99399996e+00, 3.99399996e+00, 3.94799995e+00, 3.94799995e+00, 3.94799995e+00, 3.94799995e+00, 3.94799995e+00, 3.94799995e+00, 3.94799995e+00, 3.94799995e+00, 3.94799995e+00, 3.94799995e+00, 3.90300012e+00, 3.94799995e+00, 3.94799995e+00, 3.94799995e+00, 3.90300012e+00, 3.90300012e+00, 3.90300012e+00, 3.90300012e+00, 3.90300012e+00, 3.90300012e+00, 3.90300012e+00, 3.90300012e+00, 3.90300012e+00, 3.90300012e+00, 3.90300012e+00, 3.90300012e+00, 3.90300012e+00, 3.90300012e+00, 3.90300012e+00, 3.90300012e+00, 3.90300012e+00, 3.90300012e+00, 3.85899997e+00, 3.85899997e+00, 3.90300012e+00, 3.85899997e+00, 3.85899997e+00, 3.90300012e+00, 3.85899997e+00, 3.81599998e+00, 3.81599998e+00, 3.81599998e+00, 3.81599998e+00, 3.81599998e+00, 3.81599998e+00, 3.81599998e+00, 3.81599998e+00, 3.81599998e+00, 3.81599998e+00, 3.81599998e+00, 3.81599998e+00, 3.81599998e+00, 3.81599998e+00, 3.81599998e+00, 3.81599998e+00, 3.81599998e+00, 3.81599998e+00, 3.81599998e+00, 3.81599998e+00, 3.81599998e+00, 3.81599998e+00, 3.81599998e+00, 3.81599998e+00, 3.81599998e+00, 3.77399993e+00, 3.77399993e+00, 3.77399993e+00, 3.77399993e+00, 3.77399993e+00, 3.77399993e+00, 3.77399993e+00, 3.77399993e+00, 3.77399993e+00, 3.77399993e+00, 3.77399993e+00, 3.77399993e+00, 3.77399993e+00, 3.77399993e+00, 3.77399993e+00, 3.77399993e+00, 3.77399993e+00, 3.77399993e+00, 3.77399993e+00, 3.77399993e+00, 3.77399993e+00, 3.81599998e+00, 3.81599998e+00, 3.81599998e+00, 3.81599998e+00, 3.81599998e+00, 3.81599998e+00, 3.77399993e+00, 3.77399993e+00, 3.81599998e+00, 3.77399993e+00, 3.77399993e+00, 3.81599998e+00, 3.81599998e+00, 3.77399993e+00, 3.77399993e+00, 3.77399993e+00, 3.77399993e+00, 3.73200011e+00, 3.73200011e+00, 3.73200011e+00, 3.73200011e+00, 3.73200011e+00, 3.73200011e+00, 3.73200011e+00, 3.73200011e+00, 3.73200011e+00, 3.73200011e+00, 3.73200011e+00, 3.73200011e+00, 3.73200011e+00, 3.73200011e+00, 3.73200011e+00, 3.73200011e+00, 3.73200011e+00, 3.73200011e+00, 3.73200011e+00, 3.77399993e+00, 3.77399993e+00, 3.77399993e+00, 3.77399993e+00, 3.77399993e+00, 3.77399993e+00, 3.77399993e+00, 3.77399993e+00, 3.77399993e+00, 3.77399993e+00, 3.77399993e+00, 3.77399993e+00, 3.73200011e+00, 3.73200011e+00, 3.73200011e+00, 3.77399993e+00, 3.73200011e+00, 3.73200011e+00, 3.69199991e+00, 3.69199991e+00, 3.69199991e+00, 3.69199991e+00, 3.73200011e+00, 3.69199991e+00, 3.73200011e+00, 3.73200011e+00, 3.77399993e+00, 3.73200011e+00, 3.73200011e+00, .Nan, 3.73200011e+00, .Nan, .Nan, .Nan, 3.77399993e+00, 3.73200011e+00, 3.73200011e+00, 3.73200011e+00, .Nan, .Nan, .Nan, .Nan, .Nan, .Nan, .Nan, .Nan, .Nan, 3.73200011e+00, 3.69199991e+00, 3.65300012e+00, 3.65300012e+00, 3.65300012e+00, 3.69199991e+00, 3.69199991e+00, 3.73200011e+00, 3.73200011e+00, 3.73200011e+00, 3.77399993e+00, .Nan, .Nan, .Nan, .Nan, .Nan, 3.69199991e+00, 3.73200011e+00, 3.73200011e+00, 3.73200011e+00, 3.73200011e+00, 3.69199991e+00, 3.69199991e+00, 3.69199991e+00, 3.69199991e+00, 3.69199991e+00, 3.69199991e+00, 3.69199991e+00, 3.69199991e+00, 3.69199991e+00, 3.69199991e+00,
       4.08900023e+00, 4.08900023e+00, 4.08900023e+00, 4.08900023e+00, 4.08900023e+00, 4.08900023e+00, 4.08900023e+00, 4.04099989e+00, 4.04099989e+00, 4.08900023e+00, 4.08900023e+00, 4.08900023e+00, 4.08900023e+00, 4.08900023e+00, 4.08900023e+00, 4.08900023e+00, 4.08900023e+00, 4.08900023e+00, 4.08900023e+00, 4.08900023e+00, 4.08900023e+00, 4.08900023e+00, 4.08900023e+00, 4.08900023e+00, 4.08900023e+00, 4.08900023e+00, 4.08900023e+00, 4.08900023e+00, 4.08900023e+00, 4.08900023e+00, 4.08900023e+00, 4.04099989e+00, 4.04099989e+00, 4.04099989e+00, 4.04099989e+00, 4.04099989e+00, 4.04099989e+00, 4.04099989e+00, 4.04099989e+00, 4.04099989e+00, 4.04099989e+00, 4.08900023e+00, 4.08900023e+00, 4.08900023e+00, 4.08900023e+00, 4.04099989e+00, 4.04099989e+00, 4.04099989e+00, 4.04099989e+00, 4.08900023e+00, 4.08900023e+00, 4.08900023e+00, 4.04099989e+00, 3.99399996e+00, 3.99399996e+00, 3.99399996e+00, 3.99399996e+00, 3.99399996e+00, 3.99399996e+00, 3.99399996e+00, 3.99399996e+00, 3.99399996e+00, 3.99399996e+00, 3.94799995e+00, 3.94799995e+00, 3.99399996e+00, 3.99399996e+00, 3.99399996e+00, 3.99399996e+00, 3.99399996e+00, 3.99399996e+00, 3.99399996e+00, 3.99399996e+00, 3.99399996e+00, 3.99399996e+00, 3.99399996e+00, 3.99399996e+00, 3.94799995e+00, 3.94799995e+00, 3.94799995e+00, 3.94799995e+00, 3.94799995e+00, 3.94799995e+00, 3.94799995e+00, 3.94799995e+00, 3.94799995e+00, 3.94799995e+00, 3.94799995e+00, 3.94799995e+00, 3.94799995e+00, 3.94799995e+00, 3.94799995e+00, 3.94799995e+00, 3.90300012e+00, 3.90300012e+00, 3.85899997e+00, 3.90300012e+00, 3.90300012e+00, 3.90300012e+00, 3.90300012e+00, 3.90300012e+00, 3.90300012e+00, 3.90300012e+00, 3.90300012e+00, 3.90300012e+00, 3.90300012e+00, 3.90300012e+00, 3.90300012e+00, 3.90300012e+00, 3.90300012e+00, 3.90300012e+00, 3.90300012e+00, 3.90300012e+00, 3.85899997e+00, 3.85899997e+00, 3.85899997e+00, 3.85899997e+00, 3.81599998e+00, 3.81599998e+00, 3.81599998e+00, 3.81599998e+00, 3.81599998e+00, 3.81599998e+00, 3.81599998e+00, 3.81599998e+00, 3.81599998e+00, 3.81599998e+00, 3.81599998e+00, 3.81599998e+00, 3.81599998e+00, 3.81599998e+00, 3.81599998e+00, 3.81599998e+00, 3.81599998e+00, 3.81599998e+00, 3.81599998e+00, 3.81599998e+00, 3.81599998e+00, 3.81599998e+00, 3.81599998e+00, 3.81599998e+00, 3.81599998e+00, 3.77399993e+00, 3.77399993e+00, 3.77399993e+00, 3.77399993e+00, 3.77399993e+00, 3.77399993e+00, 3.77399993e+00, 3.77399993e+00, 3.77399993e+00, 3.77399993e+00, 3.77399993e+00, 3.77399993e+00, 3.77399993e+00, 3.77399993e+00, 3.77399993e+00, 3.77399993e+00, 3.77399993e+00, 3.77399993e+00, 3.77399993e+00, 3.73200011e+00, 3.77399993e+00, 3.77399993e+00, 3.77399993e+00, 3.77399993e+00, 3.77399993e+00, 3.77399993e+00, 3.77399993e+00, 3.77399993e+00, 3.77399993e+00, 3.81599998e+00, 3.77399993e+00, 3.77399993e+00, 3.81599998e+00, 3.81599998e+00, 3.77399993e+00, 3.81599998e+00, 3.77399993e+00, 3.77399993e+00, 3.73200011e+00, 3.73200011e+00, 3.73200011e+00, 3.73200011e+00, 3.73200011e+00, 3.73200011e+00, 3.73200011e+00, 3.73200011e+00, 3.73200011e+00, 3.73200011e+00, 3.73200011e+00, 3.73200011e+00, 3.73200011e+00, 3.73200011e+00, 3.73200011e+00, 3.73200011e+00, 3.73200011e+00, 3.73200011e+00, 3.73200011e+00, 3.73200011e+00, 3.77399993e+00, 3.77399993e+00, 3.77399993e+00, 3.77399993e+00, 3.77399993e+00, 3.77399993e+00, 3.77399993e+00, 3.77399993e+00, 3.77399993e+00, 3.77399993e+00, 3.77399993e+00, 3.73200011e+00, 3.77399993e+00, 3.77399993e+00, 3.77399993e+00, 3.77399993e+00, 3.73200011e+00, 3.73200011e+00, 3.73200011e+00, 3.69199991e+00, 3.69199991e+00, 3.73200011e+00, 3.69199991e+00, 3.69199991e+00, 3.69199991e+00, 3.73200011e+00, 3.73200011e+00, 3.73200011e+00, 3.73200011e+00, 3.73200011e+00, 3.73200011e+00, 3.81599998e+00, 3.81599998e+00, 3.77399993e+00, 3.73200011e+00, 3.73200011e+00, 3.73200011e+00, .Nan, .Nan, .Nan, .Nan, .Nan, .Nan, .Nan, .Nan, 3.69199991e+00, 3.69199991e+00, 3.69199991e+00, 3.65300012e+00, 3.65300012e+00, 3.69199991e+00, 3.69199991e+00, 3.69199991e+00, 3.73200011e+00, 3.73200011e+00, 3.73200011e+00, 3.73200011e+00, 3.73200011e+00, .Nan, .Nan, .Nan, 3.69199991e+00, 3.73200011e+00, 3.73200011e+00, 3.73200011e+00, 3.73200011e+00, 3.73200011e+00, 3.69199991e+00, 3.69199991e+00, 3.69199991e+00, 3.69199991e+00, 3.69199991e+00, 3.69199991e+00, 3.69199991e+00, 3.69199991e+00, 3.69199991e+00, 3.69199991e+00,
       4.08900023e+00, 4.08900023e+00, 4.08900023e+00, 4.08900023e+00, 4.08900023e+00, 4.08900023e+00, 4.04099989e+00, 4.04099989e+00, 4.04099989e+00, 4.04099989e+00, 4.08900023e+00, 4.08900023e+00, 4.08900023e+00, 4.08900023e+00, 4.08900023e+00, 4.08900023e+00, 4.08900023e+00, 4.08900023e+00, 4.08900023e+00, 4.08900023e+00, 4.08900023e+00, 4.08900023e+00, 4.08900023e+00, 4.08900023e+00, 4.08900023e+00, 4.08900023e+00, 4.08900023e+00, 4.08900023e+00, 4.08900023e+00, 4.08900023e+00, 4.08900023e+00, 4.04099989e+00, 4.04099989e+00, 4.04099989e+00, 4.04099989e+00, 4.04099989e+00, 4.04099989e+00, 4.04099989e+00, 4.04099989e+00, 4.04099989e+00, 4.08900023e+00, 4.08900023e+00, 4.08900023e+00, 4.08900023e+00, 4.08900023e+00, 4.08900023e+00, 4.08900023e+00, 4.08900023e+00, 4.04099989e+00, 4.08900023e+00, 4.08900023e+00, 4.04099989e+00, 4.04099989e+00, 3.99399996e+00, 3.99399996e+00, 3.99399996e+00, 3.99399996e+00, 3.99399996e+00, 3.99399996e+00, 3.94799995e+00, 3.99399996e+00, 3.99399996e+00, 3.94799995e+00, 3.99399996e+00, 3.94799995e+00, 3.94799995e+00, 3.99399996e+00, 3.94799995e+00, 3.99399996e+00, 3.99399996e+00, 3.99399996e+00, 3.99399996e+00, 3.99399996e+00, 3.99399996e+00, 3.99399996e+00, 3.99399996e+00, 3.99399996e+00, 3.94799995e+00, 3.94799995e+00, 3.94799995e+00, 3.94799995e+00, 3.94799995e+00, 3.94799995e+00, 3.94799995e+00, 3.94799995e+00, 3.94799995e+00, 3.94799995e+00, 3.94799995e+00, 3.94799995e+00, 3.94799995e+00, 3.94799995e+00, 3.94799995e+00, 3.94799995e+00, 3.90300012e+00, 3.90300012e+00, 3.90300012e+00, 3.90300012e+00, 3.90300012e+00, 3.90300012e+00, 3.90300012e+00, 3.90300012e+00, 3.90300012e+00, 3.90300012e+00, 3.90300012e+00, 3.90300012e+00, 3.90300012e+00, 3.90300012e+00, 3.90300012e+00, 3.90300012e+00, 3.90300012e+00, 3.90300012e+00, 3.90300012e+00, 3.90300012e+00, 3.85899997e+00, 3.85899997e+00, 3.85899997e+00, 3.85899997e+00, 3.81599998e+00, 3.81599998e+00, 3.81599998e+00, 3.81599998e+00, 3.81599998e+00, 3.81599998e+00, 3.81599998e+00, 3.81599998e+00, 3.81599998e+00, 3.81599998e+00, 3.81599998e+00, 3.81599998e+00, 3.81599998e+00, 3.81599998e+00, 3.81599998e+00, 3.81599998e+00, 3.81599998e+00, 3.81599998e+00, 3.81599998e+00, 3.81599998e+00, 3.81599998e+00, 3.81599998e+00, 3.81599998e+00, 3.81599998e+00, 3.81599998e+00, 3.81599998e+00, 3.77399993e+00, 3.77399993e+00, 3.77399993e+00, 3.77399993e+00, 3.77399993e+00, 3.77399993e+00, 3.77399993e+00, 3.77399993e+00, 3.77399993e+00, 3.77399993e+00, 3.77399993e+00, 3.77399993e+00, 3.77399993e+00, 3.77399993e+00, 3.77399993e+00, 3.77399993e+00, 3.77399993e+00, 3.77399993e+00, 3.73200011e+00, 3.77399993e+00, 3.77399993e+00, 3.77399993e+00, 3.77399993e+00, 3.81599998e+00, 3.81599998e+00, 3.81599998e+00, 3.77399993e+00, 3.77399993e+00, 3.77399993e+00, 3.77399993e+00, 3.77399993e+00, 3.77399993e+00, 3.81599998e+00, 3.81599998e+00, 3.81599998e+00, 3.77399993e+00, 3.77399993e+00, 3.73200011e+00, 3.73200011e+00, 3.73200011e+00, 3.73200011e+00, 3.73200011e+00, 3.73200011e+00, 3.73200011e+00, 3.73200011e+00, 3.73200011e+00, 3.73200011e+00, 3.73200011e+00, 3.73200011e+00, 3.73200011e+00, 3.73200011e+00, 3.73200011e+00, 3.69199991e+00, 3.69199991e+00, 3.73200011e+00, 3.73200011e+00, 3.73200011e+00, 3.73200011e+00, 3.77399993e+00, 3.77399993e+00, 3.77399993e+00, 3.77399993e+00, 3.77399993e+00, 3.77399993e+00, 3.77399993e+00, 3.77399993e+00, 3.77399993e+00, 3.77399993e+00, 3.77399993e+00, 3.77399993e+00, 3.77399993e+00, 3.77399993e+00, 3.77399993e+00, 3.73200011e+00, 3.73200011e+00, 3.73200011e+00, 3.73200011e+00, 3.73200011e+00, 3.73200011e+00, 3.69199991e+00, 3.69199991e+00, 3.69199991e+00, 3.73200011e+00, 3.73200011e+00, 3.73200011e+00, 3.73200011e+00, 3.73200011e+00, 3.77399993e+00, 3.85899997e+00, 3.85899997e+00, 3.81599998e+00, 3.77399993e+00, 3.73200011e+00, 3.73200011e+00, .Nan, .Nan, .Nan, .Nan, .Nan, .Nan, .Nan, .Nan, 3.65300012e+00, 3.69199991e+00, 3.69199991e+00, 3.65300012e+00, 3.65300012e+00, 3.69199991e+00, 3.69199991e+00, 3.69199991e+00, 3.69199991e+00, 3.69199991e+00, 3.69199991e+00, 3.69199991e+00, 3.69199991e+00, 3.69199991e+00, 3.69199991e+00, 3.69199991e+00, .Nan, .Nan, 3.73200011e+00, 3.73200011e+00, 3.73200011e+00, 3.73200011e+00, 3.73200011e+00, 3.69199991e+00, 3.69199991e+00, 3.69199991e+00, 3.69199991e+00, 3.69199991e+00, 3.69199991e+00, 3.69199991e+00, 3.69199991e+00, 3.69199991e+00,
       4.04099989e+00, 4.08900023e+00, 4.04099989e+00, 4.04099989e+00, 4.04099989e+00, 4.04099989e+00, 4.04099989e+00, 4.04099989e+00, 4.04099989e+00, 4.04099989e+00, 4.04099989e+00, 4.04099989e+00, 4.08900023e+00, 4.08900023e+00, 4.08900023e+00, 4.08900023e+00, 4.08900023e+00, 4.08900023e+00, 4.08900023e+00, 4.08900023e+00, 4.08900023e+00, 4.08900023e+00, 4.08900023e+00, 4.08900023e+00, 4.08900023e+00, 4.08900023e+00, 4.08900023e+00, 4.08900023e+00, 4.08900023e+00, 4.08900023e+00, 4.08900023e+00, 4.08900023e+00, 4.08900023e+00, 4.04099989e+00, 4.04099989e+00, 4.04099989e+00, 4.04099989e+00, 4.04099989e+00, 4.04099989e+00, 4.04099989e+00, 4.04099989e+00, 4.08900023e+00, 4.08900023e+00, 4.08900023e+00, 4.08900023e+00, 4.08900023e+00, 4.08900023e+00, 4.08900023e+00, 4.08900023e+00, 4.08900023e+00, 4.08900023e+00, 4.04099989e+00, 4.04099989e+00, 3.99399996e+00, 3.99399996e+00, 3.99399996e+00, 3.99399996e+00, 3.99399996e+00, 3.99399996e+00, 3.99399996e+00, 3.99399996e+00, 3.99399996e+00, 3.94799995e+00, 3.94799995e+00, 3.94799995e+00, 3.94799995e+00, 3.99399996e+00, 3.99399996e+00, 3.99399996e+00, 3.99399996e+00, 3.99399996e+00, 3.99399996e+00, 3.99399996e+00, 3.99399996e+00, 3.99399996e+00, 3.99399996e+00, 3.99399996e+00, 3.94799995e+00, 3.94799995e+00, 3.94799995e+00, 3.94799995e+00, 3.94799995e+00, 3.94799995e+00, 3.94799995e+00, 3.94799995e+00, 3.94799995e+00, 3.94799995e+00, 3.99399996e+00, 3.94799995e+00, 3.94799995e+00, 3.94799995e+00, 3.94799995e+00, 3.90300012e+00, 3.90300012e+00, 3.94799995e+00, 3.94799995e+00, 3.94799995e+00, 3.94799995e+00, 3.94799995e+00, 3.90300012e+00, 3.90300012e+00, 3.94799995e+00, 3.90300012e+00, 3.94799995e+00, 3.90300012e+00, 3.90300012e+00, 3.90300012e+00, 3.90300012e+00, 3.90300012e+00, 3.90300012e+00, 3.90300012e+00, 3.90300012e+00, 3.85899997e+00, 3.85899997e+00, 3.85899997e+00, 3.85899997e+00, 3.85899997e+00, 3.81599998e+00, 3.81599998e+00, 3.81599998e+00, 3.81599998e+00, 3.81599998e+00, 3.81599998e+00, 3.81599998e+00, 3.81599998e+00, 3.81599998e+00, 3.81599998e+00, 3.81599998e+00, 3.81599998e+00, 3.81599998e+00, 3.81599998e+00, 3.81599998e+00, 3.81599998e+00, 3.81599998e+00, 3.81599998e+00, 3.81599998e+00, 3.81599998e+00, 3.81599998e+00, 3.81599998e+00, 3.81599998e+00, 3.81599998e+00, 3.77399993e+00, 3.77399993e+00, 3.77399993e+00, 3.77399993e+00, 3.77399993e+00, 3.77399993e+00, 3.77399993e+00, 3.77399993e+00, 3.77399993e+00, 3.77399993e+00, 3.77399993e+00, 3.77399993e+00, 3.81599998e+00, 3.77399993e+00, 3.77399993e+00, 3.77399993e+00, 3.77399993e+00, 3.77399993e+00, 3.77399993e+00, 3.77399993e+00, 3.73200011e+00, 3.77399993e+00, 3.77399993e+00, 3.77399993e+00, 3.77399993e+00, 3.81599998e+00, 3.81599998e+00, 3.81599998e+00, 3.77399993e+00, 3.77399993e+00, 3.81599998e+00, 3.77399993e+00, 3.77399993e+00, 3.77399993e+00, 3.77399993e+00, 3.77399993e+00, 3.81599998e+00, 3.77399993e+00, 3.77399993e+00, 3.73200011e+00, 3.73200011e+00, 3.73200011e+00, 3.73200011e+00, 3.73200011e+00, 3.73200011e+00, 3.73200011e+00, 3.73200011e+00, 3.73200011e+00, 3.73200011e+00, 3.73200011e+00, 3.73200011e+00, 3.73200011e+00, 3.73200011e+00, 3.73200011e+00, 3.73200011e+00, 3.73200011e+00, 3.73200011e+00, 3.73200011e+00, 3.73200011e+00, 3.73200011e+00, 3.77399993e+00, 3.77399993e+00, 3.77399993e+00, 3.77399993e+00, 3.77399993e+00, 3.77399993e+00, 3.77399993e+00, 3.77399993e+00, 3.73200011e+00, 3.73200011e+00, 3.73200011e+00, 3.73200011e+00, 3.73200011e+00, 3.73200011e+00, 3.73200011e+00, 3.73200011e+00, 3.69199991e+00, 3.73200011e+00, 3.73200011e+00, 3.73200011e+00, 3.69199991e+00, 3.69199991e+00, 3.69199991e+00, 3.69199991e+00, 3.69199991e+00, 3.69199991e+00, 3.73200011e+00, 3.73200011e+00, 3.77399993e+00, 3.77399993e+00, 3.77399993e+00, 3.85899997e+00, 3.81599998e+00, 3.73200011e+00, 3.73200011e+00, 3.73200011e+00, .Nan, .Nan, .Nan, .Nan, .Nan, .Nan, 3.57599998e+00, 3.65300012e+00, 3.65300012e+00, 3.65300012e+00, 3.65300012e+00, 3.65300012e+00, 3.65300012e+00, 3.69199991e+00, 3.69199991e+00, 3.69199991e+00, 3.69199991e+00, 3.69199991e+00, 3.69199991e+00, 3.69199991e+00, 3.69199991e+00, 3.69199991e+00, 3.69199991e+00, 3.69199991e+00, 3.69199991e+00, 3.69199991e+00, 3.69199991e+00, 3.73200011e+00, 3.73200011e+00, 3.69199991e+00, 3.69199991e+00, 3.69199991e+00, 3.69199991e+00, 3.69199991e+00, 3.65300012e+00, 3.69199991e+00, 3.65300012e+00, 3.69199991e+00, 3.69199991e+00, 3.65300012e+00,
       4.04099989e+00, 4.04099989e+00, 4.04099989e+00, 4.04099989e+00, 4.04099989e+00, 4.04099989e+00, 4.04099989e+00, 4.04099989e+00, 4.04099989e+00, 4.04099989e+00, 4.04099989e+00, 4.04099989e+00, 4.08900023e+00, 4.08900023e+00, 4.08900023e+00, 4.08900023e+00, 4.08900023e+00, 4.08900023e+00, 4.08900023e+00, 4.08900023e+00, 4.08900023e+00, 4.08900023e+00, 4.08900023e+00, 4.08900023e+00, 4.08900023e+00, 4.08900023e+00, 4.08900023e+00, 4.08900023e+00, 4.08900023e+00, 4.08900023e+00, 4.08900023e+00, 4.08900023e+00, 4.08900023e+00, 4.08900023e+00, 4.04099989e+00, 4.04099989e+00, 4.04099989e+00, 4.04099989e+00, 4.04099989e+00, 4.04099989e+00, 4.04099989e+00, 4.04099989e+00, 4.08900023e+00, 4.08900023e+00, 4.08900023e+00, 4.08900023e+00, 4.08900023e+00, 4.08900023e+00, 4.08900023e+00, 4.08900023e+00, 4.08900023e+00, 4.08900023e+00, 4.04099989e+00, 3.99399996e+00, 3.99399996e+00, 3.99399996e+00, 3.99399996e+00, 3.99399996e+00, 3.99399996e+00, 3.99399996e+00, 3.99399996e+00, 3.99399996e+00, 3.99399996e+00, 3.99399996e+00, 3.99399996e+00, 3.94799995e+00, 3.94799995e+00, 3.99399996e+00, 3.99399996e+00, 3.99399996e+00, 3.99399996e+00, 3.99399996e+00, 3.99399996e+00, 3.99399996e+00, 3.99399996e+00, 3.99399996e+00, 3.99399996e+00, 3.94799995e+00, 3.94799995e+00, 3.94799995e+00, 3.94799995e+00, 3.94799995e+00, 3.94799995e+00, 3.94799995e+00, 3.94799995e+00, 3.94799995e+00, 3.94799995e+00, 3.99399996e+00, 3.94799995e+00, 3.94799995e+00, 3.94799995e+00, 3.90300012e+00, 3.90300012e+00, 3.90300012e+00, 3.94799995e+00, 3.94799995e+00, 3.94799995e+00, 3.94799995e+00, 3.94799995e+00, 3.94799995e+00, 3.94799995e+00, 3.94799995e+00, 3.94799995e+00, 3.94799995e+00, 3.90300012e+00, 3.90300012e+00, 3.90300012e+00, 3.90300012e+00, 3.90300012e+00, 3.90300012e+00, 3.90300012e+00, 3.85899997e+00, 3.85899997e+00, 3.85899997e+00, 3.85899997e+00, 3.85899997e+00, 3.85899997e+00, 3.81599998e+00, 3.77399993e+00, 3.81599998e+00, 3.81599998e+00, 3.81599998e+00, 3.81599998e+00, 3.81599998e+00, 3.81599998e+00, 3.81599998e+00, 3.81599998e+00, 3.81599998e+00, 3.81599998e+00, 3.81599998e+00, 3.81599998e+00, 3.81599998e+00, 3.81599998e+00, 3.81599998e+00, 3.81599998e+00, 3.81599998e+00, 3.77399993e+00, 3.81599998e+00, 3.81599998e+00, 3.81599998e+00, 3.81599998e+00, 3.77399993e+00, 3.81599998e+00, 3.77399993e+00, 3.77399993e+00, 3.81599998e+00, 3.81599998e+00, 3.77399993e+00, 3.77399993e+00, 3.77399993e+00, 3.77399993e+00, 3.77399993e+00, 3.81599998e+00, 3.81599998e+00, 3.77399993e+00, 3.81599998e+00, 3.77399993e+00, 3.77399993e+00, 3.77399993e+00, 3.77399993e+00, 3.77399993e+00, 3.81599998e+00, 3.81599998e+00, 3.81599998e+00, 3.81599998e+00, 3.81599998e+00, 3.81599998e+00, 3.77399993e+00, 3.77399993e+00, 3.77399993e+00, 3.77399993e+00, 3.77399993e+00, 3.77399993e+00, 3.77399993e+00, 3.81599998e+00, 3.81599998e+00, 3.77399993e+00, 3.81599998e+00, 3.77399993e+00, 3.77399993e+00, 3.73200011e+00, 3.73200011e+00, 3.73200011e+00, 3.73200011e+00, 3.73200011e+00, 3.73200011e+00, 3.73200011e+00, 3.73200011e+00, 3.73200011e+00, 3.73200011e+00, 3.69199991e+00, 3.73200011e+00, 3.73200011e+00, 3.73200011e+00, 3.73200011e+00, 3.73200011e+00, 3.73200011e+00, 3.73200011e+00, 3.73200011e+00, 3.77399993e+00, 3.73200011e+00, 3.77399993e+00, 3.77399993e+00, 3.77399993e+00, 3.77399993e+00, 3.77399993e+00, 3.73200011e+00, 3.73200011e+00, 3.73200011e+00, 3.73200011e+00, 3.73200011e+00, 3.73200011e+00, 3.73200011e+00, 3.73200011e+00, 3.77399993e+00, 3.77399993e+00, 3.73200011e+00, 3.73200011e+00, 3.73200011e+00, 3.73200011e+00, 3.73200011e+00, 3.69199991e+00, 3.69199991e+00, 3.69199991e+00, 3.69199991e+00, 3.69199991e+00, 3.73200011e+00, 3.73200011e+00, 3.77399993e+00, 3.77399993e+00, 3.81599998e+00, 3.90300012e+00, 3.77399993e+00, 3.77399993e+00, 3.77399993e+00, 3.77399993e+00, 3.73200011e+00, 3.69199991e+00, 3.69199991e+00, 3.65300012e+00, 3.65300012e+00, 3.65300012e+00, 3.65300012e+00, 3.57599998e+00, 3.57599998e+00, 3.61400008e+00, 3.65300012e+00, 3.65300012e+00, 3.65300012e+00, 3.65300012e+00, 3.69199991e+00, 3.69199991e+00, 3.69199991e+00, 3.69199991e+00, 3.69199991e+00, 3.69199991e+00, 3.69199991e+00, 3.69199991e+00, 3.69199991e+00, 3.69199991e+00, 3.69199991e+00, 3.69199991e+00, 3.69199991e+00, 3.69199991e+00, 3.69199991e+00, 3.69199991e+00, 3.69199991e+00, 3.69199991e+00, 3.69199991e+00, 3.69199991e+00, 3.69199991e+00, 3.69199991e+00, 3.69199991e+00, 3.69199991e+00, 3.69199991e+00, 3.69199991e+00, 3.65300012e+00,
       4.04099989e+00, 4.04099989e+00, 4.04099989e+00, 4.04099989e+00, 4.04099989e+00, 4.04099989e+00, 4.04099989e+00, 4.04099989e+00, 4.04099989e+00, 4.04099989e+00, 4.04099989e+00, 4.04099989e+00, 4.04099989e+00, 4.04099989e+00, 4.08900023e+00, 4.08900023e+00, 4.08900023e+00, 4.08900023e+00, 4.08900023e+00, 4.08900023e+00, 4.08900023e+00, 4.08900023e+00, 4.08900023e+00, 4.08900023e+00, 4.08900023e+00, 4.08900023e+00, 4.08900023e+00, 4.08900023e+00, 4.08900023e+00, 4.08900023e+00, 4.08900023e+00, 4.08900023e+00, 4.08900023e+00, 4.08900023e+00, 4.08900023e+00, 4.04099989e+00, 4.08900023e+00, 4.08900023e+00, 4.04099989e+00, 4.04099989e+00, 4.04099989e+00, 4.04099989e+00, 4.08900023e+00, 4.08900023e+00, 4.08900023e+00, 4.08900023e+00, 4.08900023e+00, 4.08900023e+00, 4.08900023e+00, 4.08900023e+00, 4.08900023e+00, 4.08900023e+00, 4.04099989e+00, 3.99399996e+00, 3.99399996e+00, 3.99399996e+00, 3.99399996e+00, 3.99399996e+00, 3.99399996e+00, 3.99399996e+00, 3.99399996e+00, 3.99399996e+00, 3.99399996e+00, 3.99399996e+00, 3.99399996e+00, 3.99399996e+00, 3.99399996e+00, 3.99399996e+00, 3.94799995e+00, 3.99399996e+00, 3.99399996e+00, 3.99399996e+00, 3.99399996e+00, 3.94799995e+00, 3.99399996e+00, 3.99399996e+00, 3.99399996e+00, 3.94799995e+00, 3.94799995e+00, 3.94799995e+00, 3.94799995e+00, 3.94799995e+00, 3.94799995e+00, 3.94799995e+00, 3.94799995e+00, 3.94799995e+00, 3.99399996e+00, 3.99399996e+00, 3.94799995e+00, 3.94799995e+00, 3.94799995e+00, 3.90300012e+00, 3.90300012e+00, 3.85899997e+00, 3.85899997e+00, 3.94799995e+00, 3.94799995e+00, 3.99399996e+00, 3.99399996e+00, 3.99399996e+00, 3.99399996e+00, 3.94799995e+00, 3.94799995e+00, 3.94799995e+00, 3.90300012e+00, 3.90300012e+00, 3.90300012e+00, 3.90300012e+00, 3.90300012e+00, 3.90300012e+00, 3.85899997e+00, 3.85899997e+00, 3.85899997e+00, 3.85899997e+00, 3.85899997e+00, 3.85899997e+00, 3.85899997e+00, 3.77399993e+00, 3.81599998e+00, 3.81599998e+00, 3.81599998e+00, 3.81599998e+00, 3.81599998e+00, 3.81599998e+00, 3.81599998e+00, 3.81599998e+00, 3.81599998e+00, 3.81599998e+00, 3.81599998e+00, 3.81599998e+00, 3.81599998e+00, 3.81599998e+00, 3.81599998e+00, 3.81599998e+00, 3.77399993e+00, 3.81599998e+00, 3.77399993e+00, 3.77399993e+00, 3.81599998e+00, 3.81599998e+00, 3.81599998e+00, 3.77399993e+00, 3.81599998e+00, 3.77399993e+00, 3.77399993e+00, 3.77399993e+00, 3.81599998e+00, 3.77399993e+00, 3.77399993e+00, 3.77399993e+00, 3.77399993e+00, 3.77399993e+00, 3.77399993e+00, 3.81599998e+00, 3.77399993e+00, 3.81599998e+00, 3.81599998e+00, 3.81599998e+00, 3.81599998e+00, 3.77399993e+00, 3.77399993e+00, 3.81599998e+00, 3.81599998e+00, 3.81599998e+00, 3.81599998e+00, 3.77399993e+00, 3.77399993e+00, 3.77399993e+00, 3.77399993e+00, 3.77399993e+00, 3.77399993e+00, 3.77399993e+00, 3.77399993e+00, 3.77399993e+00, 3.81599998e+00, 3.81599998e+00, 3.81599998e+00, 3.81599998e+00, 3.81599998e+00, 3.77399993e+00, 3.73200011e+00, 3.73200011e+00, 3.73200011e+00, 3.73200011e+00, 3.69199991e+00, 3.69199991e+00, 7.57000029e-01, 3.73200011e+00, 3.69199991e+00, 3.69199991e+00, 3.69199991e+00, 3.61400008e+00, 3.69199991e+00, 3.69199991e+00, 3.69199991e+00, 3.69199991e+00, 3.69199991e+00, 3.73200011e+00, 3.73200011e+00, 3.73200011e+00, 3.73200011e+00, 3.77399993e+00, 3.77399993e+00, 3.77399993e+00, 3.77399993e+00, 3.77399993e+00, 3.73200011e+00, 3.73200011e+00, 3.73200011e+00, 3.73200011e+00, 3.77399993e+00, 3.73200011e+00, 3.73200011e+00, 3.77399993e+00, 3.77399993e+00, 3.77399993e+00, 3.73200011e+00, 3.73200011e+00, 3.73200011e+00, 3.73200011e+00, 3.73200011e+00, 3.69199991e+00, 3.69199991e+00, 3.69199991e+00, 3.69199991e+00, 3.69199991e+00, 3.73200011e+00, 3.73200011e+00, 3.77399993e+00, 3.77399993e+00, 3.81599998e+00, 3.81599998e+00, 3.81599998e+00, 3.81599998e+00, 3.81599998e+00, 3.81599998e+00, 3.81599998e+00, 3.73200011e+00, 3.73200011e+00, 3.73200011e+00, 3.69199991e+00, 3.61400008e+00, 3.61400008e+00, 3.57599998e+00, 3.57599998e+00, 3.61400008e+00, 3.61400008e+00, 3.65300012e+00, 3.65300012e+00, 3.65300012e+00, 3.69199991e+00, 3.69199991e+00, 3.69199991e+00, 3.69199991e+00, 3.69199991e+00, 3.69199991e+00, 3.69199991e+00, 3.69199991e+00, 3.69199991e+00, 3.69199991e+00, 3.73200011e+00, 3.69199991e+00, 3.73200011e+00, 3.73200011e+00, 3.73200011e+00, 3.73200011e+00, 3.69199991e+00, 3.69199991e+00, 3.69199991e+00, 3.69199991e+00, 3.69199991e+00, 3.69199991e+00, 3.69199991e+00, 3.69199991e+00, 3.69199991e+00, 3.69199991e+00, 3.69199991e+00,
       4.04099989e+00, 4.04099989e+00, 4.04099989e+00, 4.04099989e+00, 4.04099989e+00, 4.04099989e+00, 4.04099989e+00, 4.04099989e+00, 4.04099989e+00, 4.04099989e+00, 4.04099989e+00, 4.04099989e+00, 4.04099989e+00, 4.08900023e+00, 4.08900023e+00, 4.08900023e+00, 4.08900023e+00, 4.08900023e+00, 4.08900023e+00, 4.08900023e+00, 4.08900023e+00, 4.08900023e+00, 4.08900023e+00, 4.08900023e+00, 4.08900023e+00, 4.08900023e+00, 4.08900023e+00, 4.08900023e+00, 4.08900023e+00, 4.08900023e+00, 4.08900023e+00, 4.08900023e+00, 4.08900023e+00, 4.08900023e+00, 4.08900023e+00, 4.08900023e+00, 4.08900023e+00, 4.08900023e+00, 4.04099989e+00, 4.04099989e+00, 4.04099989e+00, 4.04099989e+00, 4.04099989e+00, 4.08900023e+00, 4.08900023e+00, 4.08900023e+00, 4.08900023e+00, 4.08900023e+00, 4.08900023e+00, 4.08900023e+00, 4.08900023e+00, 4.04099989e+00, 4.04099989e+00, 3.99399996e+00, 3.99399996e+00, 3.99399996e+00, 3.99399996e+00, 3.99399996e+00, 3.99399996e+00, 3.99399996e+00, 3.99399996e+00, 3.99399996e+00, 3.99399996e+00, 3.99399996e+00, 3.99399996e+00, 3.99399996e+00, 3.99399996e+00, 3.99399996e+00, 3.99399996e+00, 3.99399996e+00, 3.94799995e+00, 3.99399996e+00, 3.94799995e+00, 3.94799995e+00, 3.99399996e+00, 3.99399996e+00, 3.94799995e+00, 3.94799995e+00, 3.94799995e+00, 3.94799995e+00, 3.94799995e+00, 3.94799995e+00, 3.94799995e+00, 3.94799995e+00, 3.94799995e+00, 3.94799995e+00, 3.99399996e+00, 3.99399996e+00, 3.99399996e+00, 3.94799995e+00, 3.94799995e+00, 3.90300012e+00, 3.90300012e+00, 3.85899997e+00, 3.90300012e+00, 3.99399996e+00, 3.99399996e+00, 3.99399996e+00, 3.99399996e+00, 3.99399996e+00, 3.99399996e+00, 3.94799995e+00, 3.94799995e+00, 3.90300012e+00, 3.90300012e+00, 3.90300012e+00, 3.90300012e+00, 3.90300012e+00, 3.90300012e+00, 3.90300012e+00, 3.85899997e+00, 3.85899997e+00, 3.85899997e+00, 3.85899997e+00, 3.85899997e+00, 3.85899997e+00, 3.81599998e+00, 3.77399993e+00, 3.81599998e+00, 3.81599998e+00, 3.81599998e+00, 3.81599998e+00, 3.81599998e+00, 3.81599998e+00, 3.81599998e+00, 3.81599998e+00, 3.81599998e+00, 3.81599998e+00, 3.81599998e+00, 3.81599998e+00, 3.81599998e+00, 3.81599998e+00, 3.81599998e+00, 3.81599998e+00, 3.77399993e+00, 3.81599998e+00, 3.77399993e+00, 3.77399993e+00, 3.77399993e+00, 3.77399993e+00, 3.77399993e+00, 3.77399993e+00, 3.77399993e+00, 3.77399993e+00, 3.77399993e+00, 3.77399993e+00, 3.77399993e+00, 3.77399993e+00, 3.77399993e+00, 3.77399993e+00, 3.77399993e+00, 3.77399993e+00, 3.77399993e+00, 3.81599998e+00, 3.81599998e+00, 3.81599998e+00, 3.81599998e+00, 3.81599998e+00, 3.81599998e+00, 3.77399993e+00, 3.77399993e+00, 3.77399993e+00, 3.81599998e+00, 3.81599998e+00, 3.81599998e+00, 3.77399993e+00, 3.81599998e+00, 3.77399993e+00, 3.77399993e+00, 3.77399993e+00, 3.77399993e+00, 3.77399993e+00, 3.77399993e+00, 3.77399993e+00, 3.77399993e+00, 3.81599998e+00, 3.77399993e+00, 3.81599998e+00, 3.81599998e+00, 3.77399993e+00, 3.73200011e+00, 3.73200011e+00, 3.73200011e+00, 3.69199991e+00, 3.69199991e+00, 3.69199991e+00, 7.57000029e-01, 7.57000029e-01, 7.54999995e-01, 7.54999995e-01, 3.65300012e+00, 3.65300012e+00, 3.61400008e+00, 3.65300012e+00, 3.65300012e+00, 3.65300012e+00, 3.69199991e+00, 3.73200011e+00, 3.73200011e+00, 3.73200011e+00, 3.73200011e+00, 3.73200011e+00, 3.73200011e+00, 3.77399993e+00, 3.73200011e+00, 3.73200011e+00, 3.73200011e+00, 3.73200011e+00, 3.73200011e+00, 3.73200011e+00, 3.77399993e+00, 3.73200011e+00, 3.73200011e+00, 3.73200011e+00, 3.73200011e+00, 3.77399993e+00, 3.73200011e+00, 3.73200011e+00, 3.73200011e+00, 3.73200011e+00, 3.73200011e+00, 3.69199991e+00, 3.69199991e+00, 3.65300012e+00, 3.65300012e+00, 3.69199991e+00, 3.69199991e+00, 3.73200011e+00, 3.73200011e+00, 3.77399993e+00, 3.81599998e+00, 3.81599998e+00, 3.81599998e+00, 3.81599998e+00, 3.81599998e+00, 3.81599998e+00, 3.81599998e+00, 3.69199991e+00, 3.73200011e+00, 3.69199991e+00, 3.69199991e+00, 3.65300012e+00, 3.65300012e+00, 3.57599998e+00, 3.57599998e+00, 3.57599998e+00, 3.61400008e+00, 3.61400008e+00, 3.65300012e+00, 3.61400008e+00, 3.65300012e+00, 3.69199991e+00, 3.69199991e+00, 3.69199991e+00, 3.69199991e+00, 3.69199991e+00, 3.69199991e+00, 3.69199991e+00, 3.73200011e+00, 3.73200011e+00, 3.73200011e+00, 3.69199991e+00, 3.73200011e+00, 3.73200011e+00, 3.73200011e+00, 3.73200011e+00, 3.73200011e+00, 3.69199991e+00, 3.69199991e+00, 3.69199991e+00, 3.69199991e+00, 3.69199991e+00, 3.69199991e+00, 3.69199991e+00, 3.69199991e+00, 3.69199991e+00, 3.69199991e+00,
       4.08900023e+00, 4.08900023e+00, 4.04099989e+00, 4.04099989e+00, 4.04099989e+00, 4.04099989e+00, 4.04099989e+00, 4.04099989e+00, 3.99399996e+00, 3.99399996e+00, 4.04099989e+00, 4.04099989e+00, 4.04099989e+00, 4.04099989e+00, 4.04099989e+00, 4.08900023e+00, 4.08900023e+00, 4.08900023e+00, 4.08900023e+00, 4.08900023e+00, 4.08900023e+00, 4.08900023e+00, 4.08900023e+00, 4.08900023e+00, 4.08900023e+00, 4.08900023e+00, 4.08900023e+00, 4.08900023e+00, 4.08900023e+00, 4.08900023e+00, 4.08900023e+00, 4.08900023e+00, 4.08900023e+00, 4.08900023e+00, 4.08900023e+00, 4.08900023e+00, 4.04099989e+00, 4.04099989e+00, 4.04099989e+00, 4.04099989e+00, 4.04099989e+00, 4.04099989e+00, 4.04099989e+00, 4.04099989e+00, 4.08900023e+00, 4.08900023e+00, 4.08900023e+00, 4.08900023e+00, 4.04099989e+00, 4.04099989e+00, 4.04099989e+00, 4.04099989e+00, 4.04099989e+00, 3.99399996e+00, 3.99399996e+00, 3.99399996e+00, 3.99399996e+00, 3.99399996e+00, 3.99399996e+00, 3.99399996e+00, 3.99399996e+00, 3.99399996e+00, 3.99399996e+00, 3.99399996e+00, 3.99399996e+00, 3.99399996e+00, 3.99399996e+00, 3.94799995e+00, 3.94799995e+00, 3.94799995e+00, 3.94799995e+00, 3.94799995e+00, 3.90300012e+00, 3.90300012e+00, 3.94799995e+00, 3.94799995e+00, 3.94799995e+00, 3.94799995e+00, 3.94799995e+00, 3.90300012e+00, 3.90300012e+00, 3.90300012e+00, 3.90300012e+00, 3.90300012e+00, 3.90300012e+00, 3.94799995e+00, 3.99399996e+00, 3.99399996e+00, 3.99399996e+00, 3.99399996e+00, 3.94799995e+00, 3.94799995e+00, 3.94799995e+00, 3.94799995e+00, 3.99399996e+00, 3.99399996e+00, 7.60999978e-01, 7.60999978e-01, 7.60999978e-01, 7.60999978e-01, 3.99399996e+00, 3.94799995e+00, 3.90300012e+00, 3.90300012e+00, 3.90300012e+00, 3.90300012e+00, 3.90300012e+00, 3.90300012e+00, 3.90300012e+00, 3.90300012e+00, 3.90300012e+00, 3.90300012e+00, 3.85899997e+00, 3.85899997e+00, 3.85899997e+00, 3.81599998e+00, 3.81599998e+00, 3.77399993e+00, 3.77399993e+00, 3.81599998e+00, 3.81599998e+00, 3.81599998e+00, 3.81599998e+00, 3.81599998e+00, 3.81599998e+00, 3.81599998e+00, 3.81599998e+00, 3.81599998e+00, 3.81599998e+00, 3.81599998e+00, 3.81599998e+00, 3.81599998e+00, 3.81599998e+00, 3.81599998e+00, 3.81599998e+00, 3.81599998e+00, 3.81599998e+00, 3.81599998e+00, 3.77399993e+00, 3.77399993e+00, 3.77399993e+00, 3.77399993e+00, 3.77399993e+00, 3.77399993e+00, 3.77399993e+00, 3.77399993e+00, 3.77399993e+00, 3.77399993e+00, 3.77399993e+00, 3.77399993e+00, 3.77399993e+00, 3.77399993e+00, 3.81599998e+00, 3.81599998e+00, 3.81599998e+00, 3.81599998e+00, 3.81599998e+00, 3.81599998e+00, 3.81599998e+00, 3.77399993e+00, 3.77399993e+00, 3.77399993e+00, 3.77399993e+00, 3.77399993e+00, 3.81599998e+00, 3.73200011e+00, 3.81599998e+00, 3.73200011e+00, 3.77399993e+00, 3.77399993e+00, 3.77399993e+00, 3.77399993e+00, 3.77399993e+00, 3.77399993e+00, 3.77399993e+00, 3.77399993e+00, 7.54000008e-01, 7.51999974e-01, 3.85899997e+00, 7.51999974e-01, 3.77399993e+00, 3.73200011e+00, 3.73200011e+00, 3.73200011e+00, 3.73200011e+00, 7.54999995e-01, 7.54999995e-01, 7.54999995e-01, 7.54999995e-01, 7.54999995e-01, 3.65300012e+00, 3.65300012e+00, 3.61400008e+00, 3.65300012e+00, 3.65300012e+00, 3.69199991e+00, 3.69199991e+00, 3.73200011e+00, 3.73200011e+00, 3.73200011e+00, 3.73200011e+00, 3.73200011e+00, 3.73200011e+00, 3.73200011e+00, 3.73200011e+00, 3.73200011e+00, 3.73200011e+00, 3.73200011e+00, 3.73200011e+00, 3.73200011e+00, 3.73200011e+00, 3.73200011e+00, 3.73200011e+00, 3.73200011e+00, 3.73200011e+00, 3.73200011e+00, 3.73200011e+00, 3.73200011e+00, 3.73200011e+00, 3.73200011e+00, 3.73200011e+00, 3.69199991e+00, 3.69199991e+00, 3.69199991e+00, 3.65300012e+00, 3.69199991e+00, 3.69199991e+00, 3.73200011e+00, 3.73200011e+00, 3.77399993e+00, 3.85899997e+00, 3.85899997e+00, 3.81599998e+00, 3.81599998e+00, 3.81599998e+00, 3.81599998e+00, 3.73200011e+00, 3.73200011e+00, 3.73200011e+00, 3.69199991e+00, 3.69199991e+00, 3.69199991e+00, 3.65300012e+00, 3.57599998e+00, 3.57599998e+00, 3.61400008e+00, 3.57599998e+00, 3.61400008e+00, 3.61400008e+00, 3.61400008e+00, 3.65300012e+00, 3.69199991e+00, 3.69199991e+00, 3.69199991e+00, 3.69199991e+00, 3.69199991e+00, 3.69199991e+00, 3.73200011e+00, 3.73200011e+00, 3.73200011e+00, 3.73200011e+00, 3.69199991e+00, 3.73200011e+00, 3.73200011e+00, 3.73200011e+00, 3.73200011e+00, 3.73200011e+00, 3.73200011e+00, 3.69199991e+00, 3.69199991e+00, 3.69199991e+00, 3.65300012e+00, 3.65300012e+00, 3.65300012e+00, 3.69199991e+00, 3.69199991e+00, 3.69199991e+00,
       4.08900023e+00, 4.04099989e+00, 4.04099989e+00, 4.04099989e+00, 4.04099989e+00, 3.99399996e+00, 3.99399996e+00, 3.99399996e+00, 3.99399996e+00, 4.04099989e+00, 4.04099989e+00, 4.08900023e+00, 4.04099989e+00, 4.04099989e+00, 4.04099989e+00, 4.08900023e+00, 4.08900023e+00, 4.08900023e+00, 4.08900023e+00, 4.08900023e+00, 4.08900023e+00, 4.08900023e+00, 4.08900023e+00, 4.08900023e+00, 4.08900023e+00, 4.08900023e+00, 4.08900023e+00, 4.08900023e+00, 4.08900023e+00, 4.08900023e+00, 4.08900023e+00, 4.08900023e+00, 4.04099989e+00, 4.08900023e+00, 4.08900023e+00, 4.08900023e+00, 4.08900023e+00, 4.04099989e+00, 4.04099989e+00, 4.04099989e+00, 4.04099989e+00, 4.04099989e+00, 4.04099989e+00, 4.04099989e+00, 4.04099989e+00, 4.04099989e+00, 4.04099989e+00, 4.04099989e+00, 4.04099989e+00, 4.04099989e+00, 4.04099989e+00, 4.04099989e+00, 3.99399996e+00, 3.94799995e+00, 3.94799995e+00, 3.99399996e+00, 3.99399996e+00, 3.99399996e+00, 3.99399996e+00, 3.99399996e+00, 3.99399996e+00, 3.99399996e+00, 3.99399996e+00, 3.99399996e+00, 3.99399996e+00, 3.99399996e+00, 3.99399996e+00, 3.94799995e+00, 3.94799995e+00, 3.94799995e+00, 3.90300012e+00, 3.85899997e+00, 3.85899997e+00, 3.85899997e+00, 3.85899997e+00, 3.85899997e+00, 3.94799995e+00, 3.94799995e+00, 3.94799995e+00, 3.94799995e+00, 3.90300012e+00, 3.90300012e+00, 3.90300012e+00, 3.90300012e+00, 3.90300012e+00, 3.90300012e+00, 3.90300012e+00, 3.99399996e+00, 3.99399996e+00, 3.94799995e+00, 3.94799995e+00, 3.94799995e+00, 3.94799995e+00, 7.60999978e-01, 7.60999978e-01, 7.62000024e-01, 7.62000024e-01, 7.62000024e-01, 7.62000024e-01, 7.62000024e-01, 7.62000024e-01, 3.94799995e+00, 3.94799995e+00, 3.94799995e+00, 3.90300012e+00, 3.90300012e+00, 3.90300012e+00, 3.90300012e+00, 3.90300012e+00, 3.90300012e+00, 3.90300012e+00, 3.85899997e+00, 3.85899997e+00, 3.81599998e+00, 3.81599998e+00, 3.81599998e+00, 3.81599998e+00, 3.77399993e+00, 3.77399993e+00, 3.81599998e+00, 3.81599998e+00, 3.81599998e+00, 3.81599998e+00, 3.81599998e+00, 3.81599998e+00, 3.81599998e+00, 3.81599998e+00, 3.81599998e+00, 3.81599998e+00, 3.85899997e+00, 3.85899997e+00, 3.85899997e+00, 3.85899997e+00, 3.81599998e+00, 3.81599998e+00, 3.81599998e+00, 3.81599998e+00, 3.81599998e+00, 3.77399993e+00, 3.77399993e+00, 3.81599998e+00, 3.81599998e+00, 3.81599998e+00, 3.77399993e+00, 3.77399993e+00, 3.77399993e+00, 3.77399993e+00, 3.77399993e+00, 3.73200011e+00, 3.73200011e+00, 3.73200011e+00, 3.77399993e+00, 3.77399993e+00, 3.81599998e+00, 3.81599998e+00, 3.81599998e+00, 3.81599998e+00, 3.77399993e+00, 3.77399993e+00, 3.77399993e+00, 3.77399993e+00, 3.77399993e+00, 3.81599998e+00, 3.81599998e+00, 3.85899997e+00, 3.77399993e+00, 3.81599998e+00, 3.73200011e+00, 3.77399993e+00, 3.77399993e+00, 3.73200011e+00, 3.73200011e+00, 7.54000008e-01, 7.54000008e-01, 7.54999995e-01, 7.54000008e-01, 7.54000008e-01, 7.51999974e-01, 7.51999974e-01, 7.51999974e-01, 7.50000000e-01, 7.50000000e-01, 7.51999974e-01, 3.73200011e+00, 7.54999995e-01, 7.54999995e-01, 7.54999995e-01, 7.54999995e-01, 7.54999995e-01, 7.54999995e-01, 7.54999995e-01, 7.54000008e-01, 7.54000008e-01, 3.69199991e+00, 3.69199991e+00, 3.69199991e+00, 3.73200011e+00, 3.73200011e+00, 3.73200011e+00, 3.73200011e+00, 3.73200011e+00, 3.73200011e+00, 3.73200011e+00, 3.73200011e+00, 3.73200011e+00, 3.73200011e+00, 3.73200011e+00, 3.73200011e+00, 3.73200011e+00, 3.73200011e+00, 3.73200011e+00, 3.73200011e+00, 3.73200011e+00, 3.73200011e+00, 3.73200011e+00, 3.73200011e+00, 3.73200011e+00, 3.73200011e+00, 3.73200011e+00, 3.73200011e+00, 3.73200011e+00, 3.69199991e+00, 3.69199991e+00, 3.69199991e+00, 3.65300012e+00, 3.65300012e+00, 3.69199991e+00, 3.69199991e+00, 3.69199991e+00, 3.69199991e+00, 3.81599998e+00, 3.81599998e+00, 3.81599998e+00, 3.81599998e+00, 3.81599998e+00, 3.77399993e+00, 3.77399993e+00, 3.73200011e+00, 3.73200011e+00, 3.73200011e+00, 3.73200011e+00, 3.73200011e+00, 3.65300012e+00, 3.61400008e+00, 3.57599998e+00, 3.61400008e+00, 3.57599998e+00, 3.57599998e+00, 3.65300012e+00, 3.61400008e+00, 3.65300012e+00, 3.65300012e+00, 3.69199991e+00, 3.69199991e+00, 3.69199991e+00, 3.69199991e+00, 3.69199991e+00, 3.73200011e+00, 3.73200011e+00, 3.77399993e+00, 3.77399993e+00, 3.73200011e+00, 3.73200011e+00, 3.73200011e+00, 3.77399993e+00, 3.73200011e+00, 3.73200011e+00, 3.69199991e+00, 3.69199991e+00, 3.69199991e+00, 3.65300012e+00, 3.65300012e+00, 3.65300012e+00, 3.65300012e+00, 3.69199991e+00, 3.65300012e+00, 3.65300012e+00,
       4.08900023e+00, 4.04099989e+00, 4.04099989e+00, 4.04099989e+00, .Nan, .Nan, .Nan, 3.99399996e+00, 3.99399996e+00, 3.99399996e+00, 4.04099989e+00, 4.04099989e+00, 4.04099989e+00, 4.04099989e+00, 4.04099989e+00, 4.08900023e+00, 4.08900023e+00, 4.08900023e+00, 4.13899994e+00, 4.08900023e+00, 4.08900023e+00, 4.13899994e+00, 4.08900023e+00, 4.08900023e+00, 4.08900023e+00, 4.08900023e+00, 4.08900023e+00, 4.08900023e+00, 4.08900023e+00, 4.08900023e+00, 4.08900023e+00, 4.04099989e+00, 4.04099989e+00, 4.08900023e+00, 4.04099989e+00, 4.04099989e+00, 4.08900023e+00, 4.04099989e+00, 4.04099989e+00, 4.04099989e+00, 4.04099989e+00, 4.04099989e+00, 4.04099989e+00, 4.04099989e+00, 4.04099989e+00, 4.08900023e+00, 4.04099989e+00, 4.04099989e+00, 4.04099989e+00, 4.04099989e+00, 7.68999994e-01, 7.67000020e-01, 7.67000020e-01, 7.65999973e-01, 7.65999973e-01, 7.63999999e-01, 7.63999999e-01, 7.65999973e-01, 7.63999999e-01, 3.99399996e+00, 3.99399996e+00, 3.99399996e+00, 3.99399996e+00, 3.99399996e+00, 7.62000024e-01, 7.62000024e-01, 7.62000024e-01, 7.62000024e-01, 7.63999999e-01, 7.63999999e-01, 7.63999999e-01, 3.81599998e+00, 3.81599998e+00, 3.81599998e+00, 3.85899997e+00, 7.65999973e-01, 7.65999973e-01, 7.63999999e-01, 7.62000024e-01, 7.63999999e-01, 7.62000024e-01, 7.62000024e-01, 7.62000024e-01, 7.62000024e-01, 7.62000024e-01, 7.60999978e-01, 7.60999978e-01, 7.60999978e-01, 7.60999978e-01, 7.62000024e-01, 7.62000024e-01, 7.62000024e-01, 7.62000024e-01, 7.62000024e-01, 7.62000024e-01, 7.62000024e-01, 7.62000024e-01, 7.62000024e-01, 7.63999999e-01, 7.62000024e-01, 7.62000024e-01, 7.62000024e-01, 7.63999999e-01, 7.63999999e-01, 7.63999999e-01, 3.94799995e+00, 3.94799995e+00, 3.85899997e+00, 3.85899997e+00, 3.85899997e+00, 7.62000024e-01, 7.62000024e-01, 7.62000024e-01, 3.81599998e+00, 7.62000024e-01, 7.62000024e-01, 3.81599998e+00, 3.77399993e+00, 3.77399993e+00, 3.77399993e+00, 3.77399993e+00, 7.62000024e-01, 3.77399993e+00, 3.81599998e+00, 3.81599998e+00, 3.81599998e+00, 3.81599998e+00, 7.60999978e-01, 7.59000003e-01, 7.59000003e-01, 7.59000003e-01, 7.59000003e-01, 7.59000003e-01, 7.59000003e-01, 7.59000003e-01, 7.59000003e-01, 3.81599998e+00, 3.81599998e+00, 3.77399993e+00, 3.81599998e+00, 3.81599998e+00, 3.81599998e+00, 3.81599998e+00, 3.77399993e+00, 3.77399993e+00, 3.77399993e+00, 3.77399993e+00, 3.77399993e+00, 3.77399993e+00, 3.73200011e+00, 3.73200011e+00, 3.77399993e+00, 3.77399993e+00, 3.81599998e+00, 3.81599998e+00, 3.81599998e+00, 3.77399993e+00, 3.81599998e+00, 3.77399993e+00, 3.77399993e+00, 7.59000003e-01, 7.59000003e-01, 7.59000003e-01, 7.59000003e-01, 7.57000029e-01, 7.54999995e-01, 7.54000008e-01, 7.54000008e-01, 7.54000008e-01, 3.77399993e+00, 7.54000008e-01, 7.54000008e-01, 7.54000008e-01, 7.54000008e-01, 7.54000008e-01, 7.54000008e-01, 7.54000008e-01, 7.54000008e-01, 7.54000008e-01, 7.54000008e-01, 7.51999974e-01, 7.51999974e-01, 7.54000008e-01, 7.54999995e-01, 7.57000029e-01, 7.57000029e-01, 7.57000029e-01, 7.57000029e-01, 7.57000029e-01, 7.57000029e-01, 7.54999995e-01, 7.54999995e-01, 7.54999995e-01, 7.54999995e-01, 3.73200011e+00, 3.73200011e+00, 3.73200011e+00, 3.73200011e+00, 3.73200011e+00, 3.73200011e+00, 3.73200011e+00, 3.73200011e+00, 3.73200011e+00, 3.73200011e+00, 3.73200011e+00, 3.73200011e+00, 3.73200011e+00, 3.73200011e+00, 3.73200011e+00, 3.73200011e+00, 3.73200011e+00, 3.73200011e+00, 3.73200011e+00, 3.73200011e+00, 3.73200011e+00, 3.73200011e+00, 3.73200011e+00, 3.69199991e+00, 3.69199991e+00, 3.73200011e+00, 3.73200011e+00, 3.69199991e+00, 3.69199991e+00, 3.69199991e+00, 3.69199991e+00, 3.69199991e+00, 3.69199991e+00, 3.69199991e+00, 3.69199991e+00, .Nan, .Nan, 3.81599998e+00, 3.81599998e+00, 3.81599998e+00, 3.81599998e+00, 3.77399993e+00, 3.77399993e+00, 3.73200011e+00, 3.73200011e+00, 3.73200011e+00, .Nan, .Nan, .Nan, .Nan, .Nan, 3.69199991e+00, .Nan, .Nan, 3.65300012e+00, 3.65300012e+00, 3.65300012e+00, 3.69199991e+00, 3.69199991e+00, 3.69199991e+00, 3.69199991e+00, 3.73200011e+00, 3.73200011e+00, 3.73200011e+00, 3.73200011e+00, 3.77399993e+00, 3.77399993e+00, 3.77399993e+00, 3.77399993e+00, 3.77399993e+00, 3.73200011e+00, 3.73200011e+00, 3.69199991e+00, 3.69199991e+00, 3.69199991e+00, 3.69199991e+00, 3.65300012e+00, 3.65300012e+00, 3.65300012e+00, 3.65300012e+00, 3.65300012e+00, 3.65300012e+00, 3.65300012e+00,
       4.08900023e+00, 4.08900023e+00, .Nan, .Nan, .Nan, .Nan, .Nan, .Nan, .Nan, .Nan, 4.04099989e+00, 4.04099989e+00, 4.04099989e+00, 4.04099989e+00, 4.04099989e+00, 4.08900023e+00, 4.08900023e+00, 4.08900023e+00, 4.13899994e+00, 4.08900023e+00, 4.08900023e+00, 4.08900023e+00, 4.08900023e+00, 4.08900023e+00, 4.08900023e+00, 4.08900023e+00, 4.04099989e+00, 4.08900023e+00, 4.04099989e+00, 4.04099989e+00, 4.04099989e+00, 4.08900023e+00, 4.08900023e+00, 7.65999973e-01, 7.65999973e-01, 7.65999973e-01, 7.65999973e-01, 7.65999973e-01, 7.65999973e-01, 4.08900023e+00, 4.08900023e+00, 4.04099989e+00, 4.08900023e+00, 4.04099989e+00, 4.08900023e+00, 4.08900023e+00, 4.08900023e+00, 7.68999994e-01, 7.67000020e-01, 7.67000020e-01, 7.67000020e-01, 7.67000020e-01, 7.67000020e-01, 7.65999973e-01, 7.63999999e-01, 7.63999999e-01, 7.63999999e-01, 7.65999973e-01, 7.63999999e-01, 7.65999973e-01, 7.63999999e-01, 7.62000024e-01, 7.62000024e-01, 7.63999999e-01, 7.63999999e-01, 7.62000024e-01, 7.62000024e-01, 7.62000024e-01, 7.63999999e-01, 7.63999999e-01, 7.63999999e-01, 7.68999994e-01, 7.65999973e-01, 7.65999973e-01, 7.67000020e-01, 7.65999973e-01, 7.65999973e-01, 7.65999973e-01, 7.63999999e-01, 7.63999999e-01, 7.62000024e-01, 7.62000024e-01, 7.62000024e-01, 7.62000024e-01, 7.60999978e-01, 7.60999978e-01, 7.60999978e-01, 7.60999978e-01, 7.60999978e-01, 7.62000024e-01, 7.62000024e-01, 7.62000024e-01, 7.62000024e-01, 7.62000024e-01, 7.62000024e-01, 7.62000024e-01, 7.63999999e-01, 7.63999999e-01, 7.63999999e-01, 7.63999999e-01, 7.63999999e-01, 7.63999999e-01, 7.62000024e-01, 7.62000024e-01, 7.63999999e-01, 7.62000024e-01, 7.63999999e-01, 7.62000024e-01, 7.62000024e-01, 7.62000024e-01, 7.62000024e-01, 7.62000024e-01, 7.62000024e-01, 7.60999978e-01, 7.60999978e-01, 7.62000024e-01, 7.60999978e-01, 7.60999978e-01, 7.60999978e-01, 7.59000003e-01, 7.60999978e-01, 7.60999978e-01, 7.60999978e-01, 7.60999978e-01, 7.60999978e-01, 7.59000003e-01, 7.59000003e-01, 7.59000003e-01, 7.59000003e-01, 7.59000003e-01, 7.59000003e-01, 7.59000003e-01, 7.59000003e-01, 7.59000003e-01, 7.59000003e-01, 7.59000003e-01, 7.59000003e-01, 7.60999978e-01, 7.60999978e-01, 7.60999978e-01, 7.59000003e-01, 7.59000003e-01, 7.59000003e-01, 7.59000003e-01, 7.59000003e-01, 7.59000003e-01, 7.59000003e-01, 7.59000003e-01, 3.73200011e+00, 3.73200011e+00, 7.60999978e-01, 7.60999978e-01, 7.60999978e-01, 7.60999978e-01, 7.59000003e-01, 7.59000003e-01, 7.60999978e-01, 7.59000003e-01, 7.59000003e-01, 7.59000003e-01, 7.59000003e-01, 7.59000003e-01, 7.59000003e-01, 7.59000003e-01, 7.57000029e-01, 7.57000029e-01, 7.54999995e-01, 7.54999995e-01, 7.54999995e-01, 7.54999995e-01, 7.54999995e-01, 7.54999995e-01, 7.54999995e-01, 7.54000008e-01, 7.54999995e-01, 7.54999995e-01, 7.54999995e-01, 7.54999995e-01, 7.54999995e-01, 7.54999995e-01, 7.51999974e-01, 7.51999974e-01, 7.54000008e-01, 7.54999995e-01, 7.57000029e-01, 7.57000029e-01, 7.57000029e-01, 7.57000029e-01, 7.57000029e-01, 7.57000029e-01, 7.54999995e-01, 7.54999995e-01, 7.54999995e-01, 7.59000003e-01, 7.59000003e-01, .Nan, .Nan, .Nan, 3.73200011e+00, 3.73200011e+00, 3.73200011e+00, 3.73200011e+00, 3.73200011e+00, 3.73200011e+00, 3.73200011e+00, 3.73200011e+00, 3.73200011e+00, 3.73200011e+00, 3.73200011e+00, 3.73200011e+00, 3.73200011e+00, 3.73200011e+00, 3.73200011e+00, 3.73200011e+00, 3.69199991e+00, 3.69199991e+00, 3.69199991e+00, 3.65300012e+00, 3.69199991e+00, 3.73200011e+00, 3.69199991e+00, 3.69199991e+00, 3.69199991e+00, 3.69199991e+00, 3.65300012e+00, 3.65300012e+00, 3.69199991e+00, 3.65300012e+00, 3.65300012e+00, 3.77399993e+00, 3.77399993e+00, 3.77399993e+00, 3.77399993e+00, 3.77399993e+00, 3.77399993e+00, 3.77399993e+00, 3.73200011e+00, 3.73200011e+00, 3.73200011e+00, 3.73200011e+00, .Nan, .Nan, .Nan, .Nan, .Nan, .Nan, .Nan, .Nan, 3.69199991e+00, 3.65300012e+00, 3.69199991e+00, 3.69199991e+00, 3.69199991e+00, 3.69199991e+00, 3.69199991e+00, 3.69199991e+00, 3.73200011e+00, 3.73200011e+00, 3.73200011e+00, 3.73200011e+00, 3.77399993e+00, 3.77399993e+00, .Nan, 3.77399993e+00, 3.77399993e+00, 3.73200011e+00, 3.73200011e+00, 3.69199991e+00, 3.69199991e+00, 3.69199991e+00, 3.65300012e+00, 3.65300012e+00, 3.65300012e+00, 3.65300012e+00, 3.65300012e+00, 3.61400008e+00, 3.65300012e+00,
       .Nan, .Nan, .Nan, .Nan, .Nan, .Nan, .Nan, .Nan, .Nan, .Nan, .Nan, .Nan, 4.04099989e+00, 4.04099989e+00, 4.04099989e+00, 4.08900023e+00, 4.08900023e+00, 4.08900023e+00, 4.08900023e+00, 7.67000020e-01, 7.67000020e-01, 7.65999973e-01, 7.65999973e-01, 7.65999973e-01, 7.63999999e-01, 4.04099989e+00, 4.04099989e+00, 4.04099989e+00, 4.04099989e+00, 4.04099989e+00, 3.94799995e+00, 3.90300012e+00, 3.90300012e+00, 3.85899997e+00, 3.90300012e+00, 7.67000020e-01, 7.65999973e-01, 7.65999973e-01, 7.65999973e-01, 7.65999973e-01, 7.67000020e-01, 7.67000020e-01, 7.67000020e-01, 7.67000020e-01, 7.68999994e-01, 7.68999994e-01, 7.68999994e-01, 7.68999994e-01, 7.68999994e-01, 7.67000020e-01, 7.67000020e-01, 7.67000020e-01, 7.67000020e-01, 7.65999973e-01, 7.65999973e-01, 7.65999973e-01, 7.65999973e-01, 7.65999973e-01, 7.65999973e-01, 7.65999973e-01, 7.65999973e-01, 7.63999999e-01, 7.65999973e-01, 7.63999999e-01, 7.62000024e-01, 7.62000024e-01, 7.62000024e-01, 7.62000024e-01, 7.63999999e-01, 7.65999973e-01, 7.63999999e-01, 7.67000020e-01, 7.65999973e-01, 7.67000020e-01, 7.67000020e-01, 7.67000020e-01, 7.67000020e-01, 7.65999973e-01, 7.65999973e-01, 7.63999999e-01, 7.63999999e-01, 7.62000024e-01, 7.62000024e-01, 7.62000024e-01, 7.60999978e-01, 7.60999978e-01, 7.60999978e-01, 7.60999978e-01, 7.60999978e-01, 7.62000024e-01, 7.62000024e-01, 7.62000024e-01, 7.62000024e-01, 7.63999999e-01, 7.62000024e-01, 7.62000024e-01, 7.63999999e-01, 7.63999999e-01, 7.63999999e-01, 7.63999999e-01, 7.63999999e-01, 7.63999999e-01, 7.62000024e-01, 7.62000024e-01, 7.63999999e-01, 7.62000024e-01, 7.63999999e-01, 7.62000024e-01, 7.62000024e-01, 7.62000024e-01, 7.62000024e-01, 7.62000024e-01, 7.62000024e-01, 7.62000024e-01, 7.60999978e-01, 7.62000024e-01, 7.60999978e-01, 7.60999978e-01, 7.59000003e-01, 7.59000003e-01, 7.60999978e-01, 7.60999978e-01, 7.60999978e-01, 7.60999978e-01, 7.60999978e-01, 7.59000003e-01, 7.59000003e-01, 7.59000003e-01, 7.59000003e-01, 7.59000003e-01, 7.59000003e-01, 7.59000003e-01, 7.59000003e-01, 7.59000003e-01, 7.59000003e-01, 7.59000003e-01, 7.59000003e-01, 7.59000003e-01, 7.59000003e-01, 7.59000003e-01, 7.59000003e-01, 7.59000003e-01, 7.57000029e-01, 7.57000029e-01, 7.59000003e-01, 7.59000003e-01, 7.59000003e-01, 7.59000003e-01, 7.59000003e-01, 7.60999978e-01, 7.60999978e-01, 7.60999978e-01, 7.60999978e-01, 7.59000003e-01, 7.59000003e-01, 7.59000003e-01, 7.59000003e-01, 7.59000003e-01, 7.59000003e-01, 7.59000003e-01, 7.59000003e-01, 7.57000029e-01, 7.59000003e-01, 7.59000003e-01, 7.59000003e-01, 7.57000029e-01, 7.54999995e-01, 7.54999995e-01, 7.54999995e-01, 7.54999995e-01, 7.54999995e-01, 7.54999995e-01, 7.54999995e-01, 7.54999995e-01, 7.57000029e-01, 7.57000029e-01, 7.54999995e-01, 7.54999995e-01, 7.54999995e-01, 7.54999995e-01, 7.51999974e-01, 7.51999974e-01, 7.54000008e-01, 7.54000008e-01, 7.54999995e-01, 7.54999995e-01, 7.54999995e-01, 7.54999995e-01, 7.57000029e-01, 7.57000029e-01, 7.57000029e-01, 7.57000029e-01, 7.57000029e-01, 7.59000003e-01, 7.59000003e-01, 7.59000003e-01, .Nan, 7.59000003e-01, 3.73200011e+00, 3.73200011e+00, 3.73200011e+00, 3.73200011e+00, 3.73200011e+00, 3.73200011e+00, 3.73200011e+00, 3.73200011e+00, 3.73200011e+00, 3.73200011e+00, 3.77399993e+00, 3.73200011e+00, 3.77399993e+00, 3.73200011e+00, 3.73200011e+00, 3.69199991e+00, 3.69199991e+00, 3.69199991e+00, 3.69199991e+00, 3.65300012e+00, 3.65300012e+00, 3.69199991e+00, 3.69199991e+00, 3.69199991e+00, 3.69199991e+00, 3.69199991e+00, 3.65300012e+00, 3.65300012e+00, 3.73200011e+00, 3.73200011e+00, 3.73200011e+00, 3.77399993e+00, 3.77399993e+00, 3.77399993e+00, 3.77399993e+00, 3.77399993e+00, 3.77399993e+00, 3.77399993e+00, 3.73200011e+00, 3.73200011e+00, 3.73200011e+00, 3.77399993e+00, .Nan, .Nan, .Nan, .Nan, .Nan, .Nan, .Nan, .Nan, 3.65300012e+00, 3.65300012e+00, 3.69199991e+00, 3.69199991e+00, 3.69199991e+00, 3.69199991e+00, 3.69199991e+00, 3.69199991e+00, 3.69199991e+00, 3.69199991e+00, 3.69199991e+00, 3.73200011e+00, 3.73200011e+00, 3.73200011e+00, .Nan, .Nan, 3.77399993e+00, 3.73200011e+00, 3.73200011e+00, 3.69199991e+00, 3.69199991e+00, 3.69199991e+00, 3.65300012e+00, 3.65300012e+00, 3.61400008e+00, 3.61400008e+00, 3.61400008e+00, 3.65300012e+00, 3.65300012e+00,
       .Nan, .Nan, .Nan, .Nan, .Nan, .Nan, .Nan, .Nan, .Nan, .Nan, .Nan, .Nan, .Nan, .Nan, .Nan, .Nan, .Nan, .Nan, .Nan, 7.67000020e-01, 7.67000020e-01, 7.65999973e-01, 7.65999973e-01, 7.65999973e-01, 7.65999973e-01, 7.65999973e-01, 7.65999973e-01, 7.67000020e-01, 7.67000020e-01, 3.99399996e+00, 3.94799995e+00, 3.90300012e+00, 3.85899997e+00, 3.85899997e+00, 3.85899997e+00, 7.67000020e-01, 7.67000020e-01, 7.65999973e-01, 7.65999973e-01, 7.65999973e-01, 7.67000020e-01, 7.67000020e-01, 7.67000020e-01, 7.67000020e-01, 7.67000020e-01, 7.67000020e-01, 7.68999994e-01, 7.68999994e-01, 7.67000020e-01, 7.67000020e-01, 7.67000020e-01, 7.67000020e-01, 7.67000020e-01, 7.65999973e-01, 7.65999973e-01, 7.65999973e-01, 7.65999973e-01, 7.65999973e-01, 7.65999973e-01, 7.65999973e-01, 7.65999973e-01, 7.63999999e-01, 7.65999973e-01, 7.63999999e-01, 7.63999999e-01, 7.63999999e-01, 7.63999999e-01, 7.63999999e-01, 7.63999999e-01, 7.65999973e-01, 7.63999999e-01, 7.67000020e-01, 7.65999973e-01, 7.67000020e-01, 7.67000020e-01, 7.67000020e-01, 7.67000020e-01, 7.67000020e-01, 7.65999973e-01, 7.65999973e-01, 7.63999999e-01, 7.63999999e-01, 7.62000024e-01, 7.62000024e-01, 7.60999978e-01, 7.60999978e-01, 7.60999978e-01, 7.60999978e-01, 7.62000024e-01, 7.62000024e-01, 7.62000024e-01, 7.62000024e-01, 7.63999999e-01, 7.63999999e-01, 7.63999999e-01, 7.63999999e-01, 7.63999999e-01, 7.65999973e-01, 7.65999973e-01, 7.65999973e-01, 7.65999973e-01, 7.63999999e-01, 7.63999999e-01, 7.63999999e-01, 7.63999999e-01, 7.63999999e-01, 7.62000024e-01, 7.62000024e-01, 7.62000024e-01, 7.62000024e-01, 7.62000024e-01, 7.62000024e-01, 7.60999978e-01, 7.60999978e-01, 7.60999978e-01, 7.62000024e-01, 7.60999978e-01, 7.59000003e-01, 7.59000003e-01, 7.59000003e-01, 7.59000003e-01, 7.60999978e-01, 7.59000003e-01, 7.60999978e-01, 7.60999978e-01, 7.59000003e-01, 7.59000003e-01, 7.59000003e-01, 7.59000003e-01, 7.59000003e-01, 7.59000003e-01, 7.59000003e-01, 7.59000003e-01, 7.59000003e-01, 7.59000003e-01, 7.59000003e-01, 7.59000003e-01, 7.59000003e-01, 7.59000003e-01, 7.59000003e-01, 7.59000003e-01, 7.57000029e-01, 7.57000029e-01, 7.57000029e-01, 7.57000029e-01, 7.57000029e-01, 7.59000003e-01, 7.59000003e-01, 7.59000003e-01, 7.60999978e-01, 7.60999978e-01, 7.60999978e-01, 7.60999978e-01, 7.60999978e-01, 7.59000003e-01, 7.59000003e-01, 7.59000003e-01, 7.59000003e-01, 7.59000003e-01, 7.59000003e-01, 7.57000029e-01, 7.54999995e-01, 7.57000029e-01, 7.59000003e-01, 7.59000003e-01, 7.59000003e-01, 7.57000029e-01, 7.54999995e-01, 7.57000029e-01, 7.57000029e-01, 7.57000029e-01, 7.54999995e-01, 7.57000029e-01, 7.57000029e-01, 7.57000029e-01, 7.57000029e-01, 7.57000029e-01, 7.57000029e-01, 7.57000029e-01, 7.57000029e-01, 7.54000008e-01, 7.54000008e-01, 7.54000008e-01, 7.54000008e-01, 7.54999995e-01, 7.54999995e-01, 7.54999995e-01, 7.57000029e-01, 7.57000029e-01, 7.57000029e-01, 7.57000029e-01, 7.57000029e-01, 7.57000029e-01, 7.59000003e-01, 7.59000003e-01, 7.59000003e-01, .Nan, .Nan, .Nan, 3.69199991e+00, 3.69199991e+00, 3.69199991e+00, 3.69199991e+00, 3.69199991e+00, 3.69199991e+00, 3.73200011e+00, 3.73200011e+00, 3.77399993e+00, 3.77399993e+00, 3.77399993e+00, 3.77399993e+00, 3.73200011e+00, 3.73200011e+00, 3.69199991e+00, 3.69199991e+00, 3.69199991e+00, 3.69199991e+00, 3.65300012e+00, 3.65300012e+00, 3.65300012e+00, 3.69199991e+00, 3.69199991e+00, 3.65300012e+00, 3.69199991e+00, 3.65300012e+00, 3.65300012e+00, 3.73200011e+00, 3.73200011e+00, 3.73200011e+00, 3.73200011e+00, 3.77399993e+00, 3.73200011e+00, 3.77399993e+00, 3.77399993e+00, 3.77399993e+00, 3.77399993e+00, 3.77399993e+00, 3.77399993e+00, 3.77399993e+00, 3.77399993e+00, .Nan, .Nan, .Nan, .Nan, .Nan, .Nan, .Nan, .Nan, 3.69199991e+00, 3.65300012e+00, 3.69199991e+00, 3.65300012e+00, 3.69199991e+00, 3.69199991e+00, 3.69199991e+00, 3.65300012e+00, 3.65300012e+00, 3.65300012e+00, 3.65300012e+00, .Nan, .Nan, .Nan, .Nan, .Nan, 3.77399993e+00, 3.73200011e+00, 3.73200011e+00, 3.73200011e+00, 3.69199991e+00, 3.69199991e+00, 3.65300012e+00, 3.65300012e+00, 3.65300012e+00, 3.61400008e+00, 3.61400008e+00, 3.61400008e+00, 3.61400008e+00,
       .Nan, .Nan, .Nan, .Nan, .Nan, .Nan, .Nan, .Nan, .Nan, .Nan, .Nan, .Nan, .Nan, .Nan, .Nan, .Nan, .Nan, 7.31000006e-01, 7.31000006e-01, 7.65999973e-01, 7.65999973e-01, 7.65999973e-01, 7.65999973e-01, 7.65999973e-01, 7.65999973e-01, 7.65999973e-01, 7.67000020e-01, 7.67000020e-01, 7.68999994e-01, 7.68999994e-01, 3.94799995e+00, 3.90300012e+00, 3.90300012e+00, 7.68999994e-01, 7.68999994e-01, 7.67000020e-01, 7.67000020e-01, 7.65999973e-01, 7.65999973e-01, 7.65999973e-01, 7.67000020e-01, 7.65999973e-01, 7.67000020e-01, 7.67000020e-01, 7.67000020e-01, 7.67000020e-01, 7.67000020e-01, 7.67000020e-01, 7.67000020e-01, 7.67000020e-01, 7.67000020e-01, 7.67000020e-01, 7.67000020e-01, 7.65999973e-01, 7.65999973e-01, 7.65999973e-01, 7.65999973e-01, 7.65999973e-01, 7.63999999e-01, 7.63999999e-01, 7.63999999e-01, 7.65999973e-01, 7.65999973e-01, 7.63999999e-01, 7.63999999e-01, 7.63999999e-01, 7.63999999e-01, 7.63999999e-01, 7.63999999e-01, 7.65999973e-01, 3.61400008e+00, 3.65300012e+00, 3.65300012e+00, 3.65300012e+00, 7.67000020e-01, 7.67000020e-01, 7.65999973e-01, 7.65999973e-01, 7.65999973e-01, 7.63999999e-01, 7.63999999e-01, 7.63999999e-01, 7.62000024e-01, 7.62000024e-01, 7.62000024e-01, 7.60999978e-01, 7.60999978e-01, 7.60999978e-01, 7.34000027e-01, 7.36000001e-01, 7.62000024e-01, 7.62000024e-01, 7.63999999e-01, 7.63999999e-01, 7.63999999e-01, 7.63999999e-01, 7.65999973e-01, 7.65999973e-01, 7.67000020e-01, 7.67000020e-01, 7.65999973e-01, 7.65999973e-01, 7.63999999e-01, 7.63999999e-01, 7.63999999e-01, 7.62000024e-01, 7.62000024e-01, 7.62000024e-01, 7.62000024e-01, 7.62000024e-01, 7.62000024e-01, 7.62000024e-01, 7.60999978e-01, 7.62000024e-01, 7.62000024e-01, 7.62000024e-01, 7.62000024e-01, 7.60999978e-01, 7.59000003e-01, 7.59000003e-01, 7.60999978e-01, 7.59000003e-01, 7.59000003e-01, 7.59000003e-01, 7.60999978e-01, 7.59000003e-01, 7.59000003e-01, 7.59000003e-01, 7.59000003e-01, 7.60999978e-01, 7.60999978e-01, 7.59000003e-01, 7.59000003e-01, 7.59000003e-01, 7.59000003e-01, 7.59000003e-01, 7.59000003e-01, 7.59000003e-01, 7.59000003e-01, 7.59000003e-01, 7.59000003e-01, 7.57000029e-01, 7.57000029e-01, 7.57000029e-01, 7.59000003e-01, 7.57000029e-01, 7.59000003e-01, 7.60999978e-01, 7.60999978e-01, 7.60999978e-01, 7.60999978e-01, 7.60999978e-01, 7.60999978e-01, 7.60999978e-01, 7.59000003e-01, 7.59000003e-01, 7.59000003e-01, 7.59000003e-01, 7.59000003e-01, 7.59000003e-01, 7.59000003e-01, 7.59000003e-01, 7.60999978e-01, 7.60999978e-01, 7.62000024e-01, 7.60999978e-01, 7.59000003e-01, 7.59000003e-01, 7.57000029e-01, 7.57000029e-01, 7.57000029e-01, 7.57000029e-01, 7.57000029e-01, 7.57000029e-01, 7.59000003e-01, 7.57000029e-01, 7.57000029e-01, 7.57000029e-01, 7.57000029e-01, 7.57000029e-01, 7.54000008e-01, 7.54000008e-01, 7.51999974e-01, 7.54000008e-01, 7.54000008e-01, 7.54999995e-01, 7.54999995e-01, 7.57000029e-01, 7.57000029e-01, 7.57000029e-01, 7.57000029e-01, 7.57000029e-01, 7.57000029e-01, 7.59000003e-01, 7.59000003e-01, .Nan, .Nan, .Nan, .Nan, 7.20000029e-01, 7.20000029e-01, 3.73200011e+00, 3.73200011e+00, 3.69199991e+00, 3.69199991e+00, 3.73200011e+00, 3.73200011e+00, 3.77399993e+00, 3.77399993e+00, 3.73200011e+00, 3.77399993e+00, 3.73200011e+00, 3.73200011e+00, 3.69199991e+00, 3.69199991e+00, 3.69199991e+00, 3.65300012e+00, 3.65300012e+00, 3.61400008e+00, 3.61400008e+00, 3.65300012e+00, 3.65300012e+00, 3.65300012e+00, 3.69199991e+00, 3.65300012e+00, 3.69199991e+00, 3.69199991e+00, 3.69199991e+00, 3.73200011e+00, 3.73200011e+00, 3.73200011e+00, 3.73200011e+00, 3.73200011e+00, 3.73200011e+00, 3.73200011e+00, 3.73200011e+00, 3.73200011e+00, 3.73200011e+00, 3.73200011e+00, 3.77399993e+00, .Nan, .Nan, .Nan, .Nan, .Nan, .Nan, .Nan, .Nan, .Nan, 3.65300012e+00, 3.65300012e+00, 3.65300012e+00, 3.65300012e+00, 3.65300012e+00, 3.65300012e+00, 3.65300012e+00, 3.65300012e+00, 3.61400008e+00, .Nan, .Nan, .Nan, .Nan, .Nan, .Nan, 3.73200011e+00, 3.73200011e+00, 3.73200011e+00, 3.73200011e+00, 3.69199991e+00, 3.69199991e+00, 3.65300012e+00, 3.69199991e+00, 3.65300012e+00, 3.61400008e+00, 3.61400008e+00, 3.61400008e+00, 3.61400008e+00,
       .Nan, .Nan, .Nan, .Nan, .Nan, .Nan, .Nan, .Nan, .Nan, .Nan, .Nan, .Nan, .Nan, .Nan, .Nan, .Nan, .Nan, .Nan, 7.31000006e-01, 7.31000006e-01, 7.67000020e-01, 7.65999973e-01, 7.65999973e-01, 7.65999973e-01, 7.65999973e-01, 7.67000020e-01, 7.67000020e-01, 7.67000020e-01, 7.68999994e-01, 7.68999994e-01, 7.68999994e-01, 7.68999994e-01, 7.68999994e-01, 7.68999994e-01, 7.68999994e-01, 7.68999994e-01, 7.68999994e-01, 7.65999973e-01, 7.65999973e-01, 7.32999980e-01, 7.31000006e-01, 7.67000020e-01, 7.67000020e-01, 7.67000020e-01, 7.67000020e-01, 7.67000020e-01, 7.67000020e-01, 7.67000020e-01, 7.67000020e-01, 7.65999973e-01, 7.65999973e-01, 7.67000020e-01, 7.67000020e-01, 7.65999973e-01, 7.26999998e-01, 7.67000020e-01, 7.65999973e-01, 7.65999973e-01, 7.65999973e-01, 7.27999985e-01, 7.26999998e-01, 7.26999998e-01, 7.26999998e-01, 7.27999985e-01, 7.27999985e-01, 7.27999985e-01, 7.27999985e-01, 7.27999985e-01, 7.30000019e-01, 7.30000019e-01, 3.65300012e+00, 3.65300012e+00, 3.69199991e+00, 3.69199991e+00, 3.69199991e+00, 7.67000020e-01, 7.65999973e-01, 7.65999973e-01, 7.63999999e-01, 7.63999999e-01, 7.63999999e-01, 7.63999999e-01, 7.62000024e-01, 7.62000024e-01, 7.62000024e-01, 7.62000024e-01, 7.30000019e-01, 7.30000019e-01, 7.30000019e-01, 7.30000019e-01, 7.30000019e-01, 7.62000024e-01, 7.63999999e-01, 7.63999999e-01, 7.63999999e-01, 7.63999999e-01, 7.65999973e-01, 7.65999973e-01, 7.67000020e-01, 7.67000020e-01, 7.65999973e-01, 7.65999973e-01, 7.63999999e-01, 7.63999999e-01, 7.63999999e-01, 7.62000024e-01, 7.62000024e-01, 7.62000024e-01, 7.62000024e-01, 7.62000024e-01, 7.62000024e-01, 7.62000024e-01, 7.60999978e-01, 7.62000024e-01, 7.62000024e-01, 7.62000024e-01, 7.62000024e-01, 7.60999978e-01, 7.59000003e-01, 7.60999978e-01, 7.60999978e-01, 7.60999978e-01, 7.60999978e-01, 7.60999978e-01, 7.60999978e-01, 7.60999978e-01, 7.60999978e-01, 7.60999978e-01, 7.60999978e-01, 7.60999978e-01, 7.60999978e-01, 7.59000003e-01, 7.22000003e-01, 7.59000003e-01, 7.20000029e-01, 7.20000029e-01, 7.59000003e-01, 7.22000003e-01, 7.22000003e-01, 7.22000003e-01, 7.59000003e-01, 7.59000003e-01, 7.57000029e-01, 7.57000029e-01, 7.57000029e-01, 7.57000029e-01, 7.60999978e-01, 7.60999978e-01, 7.60999978e-01, 7.60999978e-01, 7.60999978e-01, 7.60999978e-01, 7.60999978e-01, 7.60999978e-01, 7.59000003e-01, 7.59000003e-01, 7.59000003e-01, 7.22000003e-01, 7.20000029e-01, 7.20000029e-01, 7.22000003e-01, 7.60999978e-01, 7.62000024e-01, 7.60999978e-01, 7.63999999e-01, 7.62000024e-01, 7.60999978e-01, 7.59000003e-01, 7.59000003e-01, 7.59000003e-01, 7.59000003e-01, 7.57000029e-01, 7.59000003e-01, 7.59000003e-01, 7.59000003e-01, 7.59000003e-01, 7.57000029e-01, 7.57000029e-01, 7.57000029e-01, 7.57000029e-01, 7.54000008e-01, 7.54000008e-01, 7.54000008e-01, 7.54000008e-01, 7.54999995e-01, 7.54999995e-01, 7.54999995e-01, 7.54999995e-01, 7.54999995e-01, 7.22000003e-01, 7.22000003e-01, 7.22000003e-01, 7.22000003e-01, 7.22000003e-01, 7.22000003e-01, .Nan, .Nan, 7.20000029e-01, 7.20000029e-01, .Nan, 7.20000029e-01, 7.20000029e-01, 7.22000003e-01, 3.73200011e+00, 3.73200011e+00, 3.73200011e+00, 3.73200011e+00, 3.77399993e+00, 3.77399993e+00, 3.77399993e+00, 3.77399993e+00, 3.77399993e+00, 3.73200011e+00, 3.69199991e+00, 3.69199991e+00, 3.69199991e+00, 7.34000027e-01, 3.61400008e+00, 3.61400008e+00, 3.61400008e+00, 3.61400008e+00, .Nan, 3.73200011e+00, 3.69199991e+00, 3.65300012e+00, 3.73200011e+00, 3.73200011e+00, 3.73200011e+00, 3.73200011e+00, 3.73200011e+00, 3.73200011e+00, 3.73200011e+00, 3.73200011e+00, 3.73200011e+00, 3.73200011e+00, 3.73200011e+00, 3.73200011e+00, 3.77399993e+00, 3.77399993e+00, .Nan, .Nan, .Nan, .Nan, .Nan, .Nan, .Nan, .Nan, .Nan, .Nan, .Nan, 3.69199991e+00, 3.65300012e+00, 3.69199991e+00, 3.69199991e+00, 3.65300012e+00, 3.65300012e+00, 3.65300012e+00, 3.61400008e+00, .Nan, .Nan, .Nan, .Nan, .Nan, .Nan, .Nan, 3.73200011e+00, 3.73200011e+00, 3.73200011e+00, 3.69199991e+00, 3.69199991e+00, 3.69199991e+00, 3.69199991e+00, 3.65300012e+00, 3.61400008e+00, 3.61400008e+00, 3.61400008e+00, 3.61400008e+00,
       .Nan, .Nan, .Nan, .Nan, .Nan, .Nan, .Nan, .Nan, .Nan, .Nan, .Nan, .Nan, .Nan, .Nan, .Nan, .Nan, 7.31000006e-01, 7.31000006e-01, 7.31000006e-01, 7.31000006e-01, 7.31000006e-01, 7.31000006e-01, 7.30000019e-01, 7.65999973e-01, 7.65999973e-01, 7.65999973e-01, 7.30000019e-01, 7.67000020e-01, 7.68999994e-01, 7.68999994e-01, 7.30000019e-01, 7.30000019e-01, 7.30000019e-01, 7.31000006e-01, 7.31000006e-01, 7.32999980e-01, 7.34000027e-01, 7.34000027e-01, 7.32999980e-01, 7.32999980e-01, 7.31000006e-01, 7.31000006e-01, 7.31000006e-01, 7.67000020e-01, 7.67000020e-01, 7.67000020e-01, 7.67000020e-01, 7.67000020e-01, 7.67000020e-01, 7.65999973e-01, 7.26999998e-01, 7.27999985e-01, 7.27999985e-01, 7.27999985e-01, 7.27999985e-01, 7.26999998e-01, 7.27999985e-01, 7.26999998e-01, 7.27999985e-01, 7.27999985e-01, 7.26999998e-01, 7.26999998e-01, 7.26999998e-01, 7.27999985e-01, 7.27999985e-01, 7.27999985e-01, 7.27999985e-01, 7.27999985e-01, 7.30000019e-01, 7.30000019e-01, 7.30000019e-01, 7.30000019e-01, 7.30000019e-01, 3.69199991e+00, 3.69199991e+00, 3.69199991e+00, 7.65999973e-01, 7.65999973e-01, 7.65999973e-01, 7.63999999e-01, 7.63999999e-01, 7.62000024e-01, 7.62000024e-01, 7.62000024e-01, 7.62000024e-01, 7.27999985e-01, 7.27999985e-01, 7.27999985e-01, 7.30000019e-01, 7.30000019e-01, 7.27999985e-01, 7.27999985e-01, 7.27999985e-01, 7.26999998e-01, 7.26999998e-01, 7.63999999e-01, 7.65999973e-01, 7.67000020e-01, 7.67000020e-01, 7.67000020e-01, 7.65999973e-01, 7.65999973e-01, 7.63999999e-01, 7.63999999e-01, 7.63999999e-01, 7.62000024e-01, 7.62000024e-01, 7.60999978e-01, 7.62000024e-01, 7.62000024e-01, 7.25000024e-01, 7.25000024e-01, 7.26999998e-01, 7.26999998e-01, 7.26999998e-01, 7.26999998e-01, 7.25000024e-01, 7.22000003e-01, 7.22000003e-01, 7.22999990e-01, 7.60999978e-01, 7.60999978e-01, 7.60999978e-01, 7.60999978e-01, 7.60999978e-01, 7.60999978e-01, 7.60999978e-01, 7.60999978e-01, 7.60999978e-01, 7.60999978e-01, 7.60999978e-01, 7.20000029e-01, 7.22000003e-01, 7.20000029e-01, 7.22000003e-01, 7.22000003e-01, 7.22000003e-01, 7.22000003e-01, 7.22000003e-01, 7.22000003e-01, 7.22000003e-01, 7.22999990e-01, 7.22000003e-01, 7.22000003e-01, 7.22000003e-01, 7.22000003e-01, 7.22000003e-01, 7.22999990e-01, 7.22999990e-01, 7.22999990e-01, 7.25000024e-01, 7.25000024e-01, 7.25000024e-01, 7.22999990e-01, 7.22999990e-01, 7.22000003e-01, 7.22000003e-01, 7.22000003e-01, 7.22000003e-01, 7.22000003e-01, 7.22000003e-01, 7.22000003e-01, 7.71000028e-01, 7.71000028e-01, 7.71000028e-01, 7.65999973e-01, 7.25000024e-01, 7.60999978e-01, 7.22000003e-01, 7.59000003e-01, 7.59000003e-01, 7.59000003e-01, 7.59000003e-01, 7.59000003e-01, 7.57000029e-01, 7.57000029e-01, 7.57000029e-01, 7.22000003e-01, 7.20000029e-01, 7.20000029e-01, 7.18999982e-01, 7.18999982e-01, 7.18999982e-01, 7.20000029e-01, 7.20000029e-01, 7.54999995e-01, 7.54999995e-01, 7.22000003e-01, 7.22000003e-01, 7.22000003e-01, 7.22000003e-01, 7.22000003e-01, 7.22000003e-01, 7.22000003e-01, 7.22000003e-01, 7.20000029e-01, 7.20000029e-01, 7.20000029e-01, 7.20000029e-01, 7.22000003e-01, 7.22000003e-01, 7.22000003e-01, 7.22000003e-01, 7.22000003e-01, 7.22999990e-01, 7.25000024e-01, 3.77399993e+00, 3.77399993e+00, 3.77399993e+00, 3.77399993e+00, 3.77399993e+00, 3.77399993e+00, 3.77399993e+00, 3.73200011e+00, 3.73200011e+00, 7.34000027e-01, .Nan, .Nan, .Nan, .Nan, .Nan, .Nan, .Nan, 3.69199991e+00, 3.69199991e+00, 3.73200011e+00, 3.73200011e+00, 3.73200011e+00, 3.73200011e+00, 3.73200011e+00, 3.73200011e+00, 3.73200011e+00, 3.73200011e+00, 3.73200011e+00, 3.73200011e+00, 3.73200011e+00, 3.77399993e+00, 3.77399993e+00, 3.77399993e+00, 3.77399993e+00, 3.73200011e+00, .Nan, .Nan, .Nan, .Nan, .Nan, .Nan, .Nan, .Nan, 3.69199991e+00, 3.65300012e+00, 3.65300012e+00, 3.65300012e+00, 3.65300012e+00, 3.65300012e+00, 3.65300012e+00, 3.61400008e+00, 3.61400008e+00, .Nan, .Nan, .Nan, .Nan, .Nan, .Nan, 3.77399993e+00, 3.77399993e+00, 3.77399993e+00, 3.73200011e+00, 3.73200011e+00, 3.69199991e+00, 3.69199991e+00, 3.69199991e+00, 3.65300012e+00, 3.61400008e+00, 3.57599998e+00, 3.57599998e+00, 3.57599998e+00,
       .Nan, .Nan, .Nan, .Nan, 7.54999995e-01, 7.54999995e-01, .Nan, .Nan, .Nan, .Nan, .Nan, .Nan, .Nan, .Nan, .Nan, .Nan, 7.31000006e-01, 7.31000006e-01, 7.31000006e-01, 7.31000006e-01, 7.31000006e-01, 7.30000019e-01, 7.30000019e-01, 7.30000019e-01, 7.31000006e-01, 7.31000006e-01, 7.31000006e-01, 7.30000019e-01, 7.30000019e-01, 7.30000019e-01, 7.30000019e-01, 7.30000019e-01, 7.30000019e-01, 7.31000006e-01, 7.31000006e-01, 7.32999980e-01, 7.32999980e-01, 7.32999980e-01, 7.32999980e-01, 7.32999980e-01, 7.31000006e-01, 7.31000006e-01, 7.31000006e-01, 7.30000019e-01, 7.30000019e-01, 7.30000019e-01, 7.30000019e-01, 7.30000019e-01, 7.27999985e-01, 7.27999985e-01, 7.27999985e-01, 7.30000019e-01, 7.30000019e-01, 7.27999985e-01, 7.27999985e-01, 7.27999985e-01, 7.27999985e-01, 7.26999998e-01, 7.27999985e-01, 7.27999985e-01, 7.26999998e-01, 7.26999998e-01, 7.26999998e-01, 7.27999985e-01, 7.27999985e-01, 7.27999985e-01, 7.27999985e-01, 7.27999985e-01, 7.30000019e-01, 7.30000019e-01, 7.30000019e-01, 7.30000019e-01, 7.30000019e-01, 7.30000019e-01, 7.30000019e-01, 3.69199991e+00, 7.27999985e-01, 7.65999973e-01, 7.65999973e-01, 7.63999999e-01, 7.63999999e-01, 7.62000024e-01, 7.62000024e-01, 7.62000024e-01, 7.62000024e-01, 7.27999985e-01, 7.30000019e-01, 7.30000019e-01, 7.30000019e-01, 7.30000019e-01, 7.27999985e-01, 7.27999985e-01, 7.27999985e-01, 7.26999998e-01, 7.26999998e-01, 7.26999998e-01, 7.26999998e-01, 7.67000020e-01, 7.68999994e-01, 7.67000020e-01, 7.67000020e-01, 7.65999973e-01, 7.65999973e-01, 7.63999999e-01, 7.63999999e-01, 7.63999999e-01, 7.62000024e-01, 7.22999990e-01, 7.22999990e-01, 7.25000024e-01, 7.25000024e-01, 7.25000024e-01, 7.26999998e-01, 7.25000024e-01, 7.25000024e-01, 7.26999998e-01, 7.25000024e-01, 7.22000003e-01, 7.22999990e-01, 7.22999990e-01, 7.22999990e-01, 7.22999990e-01, 7.25000024e-01, 7.20000029e-01, 7.60999978e-01, 7.25000024e-01, 7.20000029e-01, 7.20000029e-01, 7.22000003e-01, 7.22000003e-01, 7.22000003e-01, 7.22000003e-01, 7.22000003e-01, 7.22000003e-01, 7.22999990e-01, 7.22999990e-01, 7.22000003e-01, 7.22999990e-01, 7.22999990e-01, 7.22999990e-01, 7.22999990e-01, 7.22999990e-01, 7.22999990e-01, 7.22999990e-01, 7.22999990e-01, 7.22999990e-01, 7.22999990e-01, 7.25000024e-01, 7.25000024e-01, 7.25000024e-01, 7.25000024e-01, 7.25000024e-01, 7.25000024e-01, 7.22999990e-01, 7.22999990e-01, 7.22000003e-01, 7.22000003e-01, 7.22000003e-01, 7.22000003e-01, 7.22000003e-01, 7.22999990e-01, 7.22999990e-01, 7.25000024e-01, 7.25000024e-01, 7.25000024e-01, 7.25000024e-01, 7.25000024e-01, 7.22999990e-01, 7.22000003e-01, 7.22000003e-01, 7.59000003e-01, 7.59000003e-01, 7.59000003e-01, 7.59000003e-01, 7.59000003e-01, 7.59000003e-01, 7.22000003e-01, 7.22000003e-01, 7.22000003e-01, 7.22000003e-01, 7.20000029e-01, 7.20000029e-01, 7.20000029e-01, 7.22000003e-01, 7.20000029e-01, 7.20000029e-01, 7.22000003e-01, 7.22000003e-01, 7.22000003e-01, 7.22000003e-01, 7.22000003e-01, 7.20000029e-01, 7.22000003e-01, 7.22000003e-01, 7.22000003e-01, 7.20000029e-01, 7.20000029e-01, 7.20000029e-01, 7.20000029e-01, 7.22000003e-01, 7.22000003e-01, 7.22000003e-01, 7.22000003e-01, 7.22999990e-01, 7.22999990e-01, 7.25000024e-01, 7.25000024e-01, 7.26999998e-01, 7.30000019e-01, 7.30000019e-01, 7.30000019e-01, 7.30000019e-01, 7.32999980e-01, 7.32999980e-01, 7.34000027e-01, 7.34000027e-01, 7.39000022e-01, 7.39000022e-01, 7.39000022e-01, .Nan, .Nan, .Nan, .Nan, .Nan, .Nan, .Nan, 3.73200011e+00, 3.77399993e+00, 3.73200011e+00, 3.69199991e+00, 3.73200011e+00, 3.73200011e+00, 3.77399993e+00, 3.73200011e+00, 3.77399993e+00, 3.77399993e+00, 3.77399993e+00, 3.77399993e+00, 3.77399993e+00, 3.77399993e+00, 3.73200011e+00, .Nan, .Nan, .Nan, .Nan, .Nan, .Nan, .Nan, .Nan, 3.69199991e+00, 3.69199991e+00, 3.65300012e+00, 3.65300012e+00, 3.65300012e+00, 3.65300012e+00, 3.61400008e+00, 3.61400008e+00, 3.57599998e+00, .Nan, .Nan, .Nan, .Nan, .Nan, .Nan, .Nan, 3.77399993e+00, 3.73200011e+00, 3.73200011e+00, 3.69199991e+00, 3.69199991e+00, 3.69199991e+00, 3.69199991e+00, 3.65300012e+00, 3.61400008e+00, 3.57599998e+00, 3.57599998e+00, 3.57599998e+00,
       .Nan, .Nan, .Nan, .Nan, 7.57000029e-01, 7.57000029e-01, 7.57000029e-01, .Nan, .Nan, 7.45999992e-01, 7.44000018e-01, 7.40999997e-01, .Nan, 7.37999976e-01, 7.36000001e-01, 7.34000027e-01, 7.31000006e-01, 7.31000006e-01, 7.31000006e-01, 7.31000006e-01, 7.31000006e-01, 7.30000019e-01, 7.30000019e-01, 7.30000019e-01, 7.30000019e-01, 7.30000019e-01, 7.31000006e-01, 7.31000006e-01, 7.30000019e-01, 7.31000006e-01, 7.31000006e-01, 7.30000019e-01, 7.30000019e-01, 7.31000006e-01, 7.31000006e-01, 7.31000006e-01, 7.32999980e-01, 7.31000006e-01, 7.32999980e-01, 7.32999980e-01, 7.31000006e-01, 7.31000006e-01, 7.31000006e-01, 7.30000019e-01, 7.30000019e-01, 7.30000019e-01, 7.30000019e-01, 7.30000019e-01, 7.30000019e-01, 7.30000019e-01, 7.30000019e-01, 7.30000019e-01, 7.30000019e-01, 7.27999985e-01, 7.27999985e-01, 7.27999985e-01, 7.27999985e-01, 7.26999998e-01, 7.27999985e-01, 7.27999985e-01, 7.27999985e-01, 7.26999998e-01, 7.27999985e-01, 7.27999985e-01, 7.27999985e-01, 7.27999985e-01, 7.27999985e-01, 7.27999985e-01, 7.30000019e-01, 7.30000019e-01, 7.30000019e-01, 7.30000019e-01, 7.30000019e-01, 7.30000019e-01, 7.30000019e-01, 7.30000019e-01, 7.27999985e-01, 7.27999985e-01, 7.27999985e-01, 7.27999985e-01, 7.63999999e-01, 7.62000024e-01, 7.62000024e-01, 7.62000024e-01, 7.30000019e-01, 7.30000019e-01, 7.30000019e-01, 7.30000019e-01, 7.30000019e-01, 7.30000019e-01, 7.27999985e-01, 7.27999985e-01, 7.27999985e-01, 7.26999998e-01, 7.26999998e-01, 7.26999998e-01, 7.26999998e-01, 7.25000024e-01, 7.26999998e-01, 7.26999998e-01, 7.26999998e-01, 7.26999998e-01, 7.26999998e-01, 7.26999998e-01, 7.26999998e-01, 7.26999998e-01, 7.25000024e-01, 7.25000024e-01, 7.25000024e-01, 7.25000024e-01, 7.26999998e-01, 7.25000024e-01, 7.26999998e-01, 7.26999998e-01, 7.26999998e-01, 7.26999998e-01, 7.26999998e-01, 7.22999990e-01, 7.22999990e-01, 7.22999990e-01, 7.22999990e-01, 7.25000024e-01, 7.25000024e-01, 7.25000024e-01, 7.25000024e-01, 7.25000024e-01, 7.25000024e-01, 7.25000024e-01, 7.22999990e-01, 7.22000003e-01, 7.22000003e-01, 7.22000003e-01, 7.22000003e-01, 7.22000003e-01, 7.22999990e-01, 7.22999990e-01, 7.22999990e-01, 7.25000024e-01, 7.25000024e-01, 7.25000024e-01, 7.25000024e-01, 7.25000024e-01, 7.22999990e-01, 7.22999990e-01, 7.22999990e-01, 7.22999990e-01, 7.25000024e-01, 7.25000024e-01, 7.25000024e-01, 7.22999990e-01, 7.25000024e-01, 7.25000024e-01, 7.25000024e-01, 7.22999990e-01, 7.22999990e-01, 7.22000003e-01, 7.22000003e-01, 7.22000003e-01, 7.22000003e-01, 7.22000003e-01, 7.22000003e-01, 7.22999990e-01, 7.22999990e-01, 7.22999990e-01, 7.25000024e-01, 7.22999990e-01, 7.22999990e-01, 7.22000003e-01, 7.22000003e-01, 7.22000003e-01, 7.22000003e-01, 7.22000003e-01, 7.59000003e-01, 7.59000003e-01, 7.22000003e-01, 7.22000003e-01, 7.22000003e-01, 7.22000003e-01, 7.22000003e-01, 7.22000003e-01, 7.20000029e-01, 7.20000029e-01, 7.20000029e-01, 7.20000029e-01, 7.20000029e-01, 7.20000029e-01, 7.20000029e-01, 7.22000003e-01, 7.22000003e-01, 7.22000003e-01, 7.22000003e-01, 7.22000003e-01, 7.22000003e-01, 7.22000003e-01, 7.22000003e-01, 7.22000003e-01, 7.22000003e-01, 7.20000029e-01, 7.20000029e-01, 7.22000003e-01, 7.22000003e-01, 7.22000003e-01, 7.22999990e-01, 7.22999990e-01, 7.22999990e-01, 7.26999998e-01, 7.26999998e-01, 7.27999985e-01, 7.30000019e-01, 7.30000019e-01, 7.30000019e-01, 7.31000006e-01, 7.31000006e-01, 7.32999980e-01, 7.34000027e-01, 7.37999976e-01, 7.39000022e-01, 7.39000022e-01, 7.39000022e-01, 7.39000022e-01, .Nan, .Nan, .Nan, .Nan, .Nan, .Nan, 3.73200011e+00, 3.77399993e+00, 3.73200011e+00, 3.69199991e+00, 3.73200011e+00, 3.77399993e+00, 3.77399993e+00, 3.73200011e+00, 3.77399993e+00, 3.77399993e+00, 3.77399993e+00, 3.77399993e+00, 3.77399993e+00, 3.73200011e+00, 3.73200011e+00, 3.73200011e+00, 3.73200011e+00, 3.69199991e+00, 3.69199991e+00, 3.69199991e+00, 3.73200011e+00, 3.73200011e+00, .Nan, 3.73200011e+00, 3.69199991e+00, 3.69199991e+00, 3.65300012e+00, 3.65300012e+00, 3.65300012e+00, 3.61400008e+00, 3.57599998e+00, 3.57599998e+00, 3.57599998e+00, .Nan, .Nan, .Nan, .Nan, .Nan, .Nan, 3.77399993e+00, 3.77399993e+00, 3.77399993e+00, 3.69199991e+00, 3.69199991e+00, 3.69199991e+00, 3.69199991e+00, 3.65300012e+00, 3.61400008e+00, 3.61400008e+00, 3.61400008e+00, 3.61400008e+00 ]
